-1856.000000 62.000000 64.000000
-1856.000000 64.000000 64.000000
-1856.000000 66.000000 64.000000
-1856.000000 68.000000 64.000000
-1856.000000 70.000000 64.000000
-1856.000000 72.000000 64.000000
-1856.000000 74.000000 64.000000
-1856.000000 76.000000 64.000000
-1856.000000 78.000000 64.000000
-1856.000000 80.000000 64.000000
-1856.000000 82.000000 64.000000
-1856.000000 84.000000 64.000000
-1856.000000 86.000000 64.000000
-1856.000000 88.000000 64.000000
-1856.000000 90.000000 64.000000
-1856.000000 92.000000 64.000000
-1856.000000 94.000000 64.000000
-1856.000000 96.000000 64.000000
-1856.000000 98.000000 64.000000
-1856.000000 100.000000 64.000000
-1856.000000 102.000000 64.000000
-1856.000000 104.000000 64.000000
-1856.000000 106.000000 64.000000
-1856.000000 108.000000 64.000000
-1856.000000 110.000000 64.000000
-1856.000000 112.000000 64.000000
-1856.000000 114.000000 64.000000
-1856.000000 116.000000 64.000000
-1856.000000 118.000000 64.000000
-1856.000000 120.000000 64.000000
-1856.000000 122.000000 64.000000
-1856.000000 124.000000 64.000000
-1856.000000 126.000000 64.000000
-1856.000000 128.000000 64.000000
-1856.000000 130.000000 64.000000
-1856.000000 132.000000 64.000000
-1856.000000 134.000000 64.000000
-1856.000000 136.000000 64.000000
-1856.000000 138.000000 64.000000
-1856.000000 140.000000 64.000000
-1856.000000 142.000000 64.000000
-1856.000000 144.000000 64.000000
-1856.000000 146.000000 64.000000
-1856.000000 148.000000 64.000000
-1856.000000 150.000000 64.000000
-1856.000000 152.000000 64.000000
-1856.000000 154.000000 64.000000
-1856.000000 156.000000 64.000000
-1856.000000 158.000000 64.000000
-1856.000000 160.000000 64.000000
-1856.000000 162.000000 64.000000
-1856.000000 164.000000 64.000000
-1856.000000 166.000000 64.000000
-1856.000000 168.000000 64.000000
-1856.000000 170.000000 64.000000
-1856.000000 172.000000 64.000000
-1856.000000 174.000000 64.000000
-1856.000000 176.000000 64.000000
-1856.000000 178.000000 64.000000
-1856.000000 180.000000 64.000000
-1856.000000 182.000000 64.000000
-1856.000000 184.000000 64.000000
-1856.000000 186.000000 64.000000
-1856.000000 188.000000 64.000000
-1856.000000 192.000000 64.000000
-1854.229204 192.000000 63.070332
-1852.458408 192.000000 62.140664
-1850.687613 192.000000 61.210997
-1848.916817 192.000000 60.281329
-1847.146021 192.000000 59.351661
-1845.375225 192.000000 58.421993
-1843.604429 192.000000 57.492325
-1841.833634 192.000000 56.562658
-1840.062838 192.000000 55.632990
-1838.292042 192.000000 54.703322
-1836.521246 192.000000 53.773654
-1834.750450 192.000000 52.843986
-1832.979655 192.000000 51.914319
-1831.208859 192.000000 50.984651
-1829.438063 192.000000 50.054983
-1827.667267 192.000000 49.125315
-1825.896471 192.000000 48.195647
-1824.125675 192.000000 47.265980
-1822.354880 192.000000 46.336312
-1820.584084 192.000000 45.406644
-1818.813288 192.000000 44.476976
-1817.042492 192.000000 43.547308
-1815.271696 192.000000 42.617641
-1813.500901 192.000000 41.687973
-1811.730105 192.000000 40.758305
-1809.959309 192.000000 39.828637
-1808.188513 192.000000 38.898969
-1806.417717 192.000000 37.969302
-1804.646922 192.000000 37.039634
-1802.876126 192.000000 36.109966
-1801.105330 192.000000 35.180298
-1799.334534 192.000000 34.250630
-1797.563738 192.000000 33.320963
-1795.792943 192.000000 32.391295
-1794.022147 192.000000 31.461627
-1792.251351 192.000000 30.531959
-1790.480555 192.000000 29.602291
-1788.709759 192.000000 28.672624
-1786.938964 192.000000 27.742956
-1785.168168 192.000000 26.813288
-1783.397372 192.000000 25.883620
-1781.626576 192.000000 24.953952
-1779.855780 192.000000 24.024285
-1778.084985 192.000000 23.094617
-1776.314189 192.000000 22.164949
-1774.543393 192.000000 21.235281
-1772.772597 192.000000 20.305613
-1771.001801 192.000000 19.375946
-1769.231006 192.000000 18.446278
-1767.460210 192.000000 17.516610
-1765.689414 192.000000 16.586942
-1763.918618 192.000000 15.657275
-1762.147822 192.000000 14.727607
-1760.377026 192.000000 13.797939
-1758.606231 192.000000 12.868271
-1756.835435 192.000000 11.938603
-1755.064639 192.000000 11.008936
-1753.293843 192.000000 10.079268
-1751.523047 192.000000 9.149600
-1749.752252 192.000000 8.219932
-1747.981456 192.000000 7.290264
-1746.210660 192.000000 6.360597
-1744.439864 192.000000 5.430929
-1742.669068 192.000000 4.501261
-1740.898273 192.000000 3.571593
-1739.127477 192.000000 2.641925
-1737.356681 192.000000 1.712258
-1735.585885 192.000000 0.782590
-1733.815089 192.000000 -0.147078
-1732.044294 192.000000 -1.076746
-1730.273498 192.000000 -2.006414
-1728.502702 192.000000 -2.936081
-1726.731906 192.000000 -3.865749
-1724.961110 192.000000 -4.795417
-1723.190315 192.000000 -5.725085
-1721.419519 192.000000 -6.654753
-1719.648723 192.000000 -7.584420
-1717.877927 192.000000 -8.514088
-1716.107131 192.000000 -9.443756
-1714.336336 192.000000 -10.373424
-1712.565540 192.000000 -11.303092
-1710.794744 192.000000 -12.232759
-1709.023948 192.000000 -13.162427
-1707.253152 192.000000 -14.092095
-1705.482357 192.000000 -15.021763
-1703.711561 192.000000 -15.951431
-1701.940765 192.000000 -16.881098
-1700.169969 192.000000 -17.810766
-1698.399173 192.000000 -18.740434
-1696.000000 192.000000 -20.000000
-1696.022726 190.000129 -20.000000
-1696.045452 188.000258 -20.000000
-1696.068177 186.000387 -20.000000
-1696.090903 184.000516 -20.000000
-1696.113629 182.000646 -20.000000
-1696.136355 180.000775 -20.000000
-1696.159081 178.000904 -20.000000
-1696.181806 176.001033 -20.000000
-1696.204532 174.001162 -20.000000
-1696.227258 172.001291 -20.000000
-1696.249984 170.001420 -20.000000
-1696.272710 168.001549 -20.000000
-1696.295435 166.001679 -20.000000
-1696.318161 164.001808 -20.000000
-1696.340887 162.001937 -20.000000
-1696.363613 160.002066 -20.000000
-1696.386339 158.002195 -20.000000
-1696.409064 156.002324 -20.000000
-1696.431790 154.002453 -20.000000
-1696.454516 152.002582 -20.000000
-1696.477242 150.002712 -20.000000
-1696.499968 148.002841 -20.000000
-1696.522694 146.002970 -20.000000
-1696.545419 144.003099 -20.000000
-1696.568145 142.003228 -20.000000
-1696.590871 140.003357 -20.000000
-1696.613597 138.003486 -20.000000
-1696.636323 136.003615 -20.000000
-1696.659048 134.003744 -20.000000
-1696.681774 132.003874 -20.000000
-1696.704500 130.004003 -20.000000
-1696.727226 128.004132 -20.000000
-1696.749952 126.004261 -20.000000
-1696.772677 124.004390 -20.000000
-1696.795403 122.004519 -20.000000
-1696.818129 120.004648 -20.000000
-1696.840855 118.004777 -20.000000
-1696.863581 116.004907 -20.000000
-1696.886306 114.005036 -20.000000
-1696.909032 112.005165 -20.000000
-1696.931758 110.005294 -20.000000
-1696.954484 108.005423 -20.000000
-1696.977210 106.005552 -20.000000
-1696.999935 104.005681 -20.000000
-1697.022661 102.005810 -20.000000
-1697.045387 100.005940 -20.000000
-1697.068113 98.006069 -20.000000
-1697.090839 96.006198 -20.000000
-1697.113564 94.006327 -20.000000
-1697.136290 92.006456 -20.000000
-1697.159016 90.006585 -20.000000
-1697.181742 88.006714 -20.000000
-1697.204468 86.006843 -20.000000
-1697.227193 84.006972 -20.000000
-1697.249919 82.007102 -20.000000
-1697.272645 80.007231 -20.000000
-1697.295371 78.007360 -20.000000
-1697.318097 76.007489 -20.000000
-1697.340823 74.007618 -20.000000
-1697.363548 72.007747 -20.000000
-1697.386274 70.007876 -20.000000
-1697.409000 68.008005 -20.000000
-1697.431726 66.008135 -20.000000
-1697.454452 64.008264 -20.000000
-1697.477177 62.008393 -20.000000
-1697.499903 60.008522 -20.000000
-1697.522629 58.008651 -20.000000
-1697.545355 56.008780 -20.000000
-1697.568081 54.008909 -20.000000
-1697.590806 52.009038 -20.000000
-1697.613532 50.009168 -20.000000
-1697.636258 48.009297 -20.000000
-1697.658984 46.009426 -20.000000
-1697.681710 44.009555 -20.000000
-1697.704435 42.009684 -20.000000
-1697.727161 40.009813 -20.000000
-1697.749887 38.009942 -20.000000
-1697.772613 36.010071 -20.000000
-1697.795339 34.010200 -20.000000
-1697.818064 32.010330 -20.000000
-1697.840790 30.010459 -20.000000
-1697.863516 28.010588 -20.000000
-1697.886242 26.010717 -20.000000
-1697.908968 24.010846 -20.000000
-1697.931693 22.010975 -20.000000
-1697.954419 20.011104 -20.000000
-1697.977145 18.011233 -20.000000
-1697.999871 16.011363 -20.000000
-1698.022597 14.011492 -20.000000
-1698.045322 12.011621 -20.000000
-1698.068048 10.011750 -20.000000
-1698.090774 8.011879 -20.000000
-1698.113500 6.012008 -20.000000
-1698.136226 4.012137 -20.000000
-1698.158952 2.012266 -20.000000
-1698.181677 0.012395 -20.000000
-1698.204403 -1.987475 -20.000000
-1698.227129 -3.987346 -20.000000
-1698.249855 -5.987217 -20.000000
-1698.272581 -7.987088 -20.000000
-1698.295306 -9.986959 -20.000000
-1698.318032 -11.986830 -20.000000
-1698.340758 -13.986701 -20.000000
-1698.363484 -15.986572 -20.000000
-1698.386210 -17.986442 -20.000000
-1698.408935 -19.986313 -20.000000
-1698.431661 -21.986184 -20.000000
-1698.454387 -23.986055 -20.000000
-1698.477113 -25.985926 -20.000000
-1698.499839 -27.985797 -20.000000
-1698.522564 -29.985668 -20.000000
-1698.545290 -31.985539 -20.000000
-1698.568016 -33.985409 -20.000000
-1698.590742 -35.985280 -20.000000
-1698.613468 -37.985151 -20.000000
-1698.636193 -39.985022 -20.000000
-1698.658919 -41.984893 -20.000000
-1698.681645 -43.984764 -20.000000
-1698.704371 -45.984635 -20.000000
-1698.727097 -47.984506 -20.000000
-1698.749822 -49.984377 -20.000000
-1698.772548 -51.984247 -20.000000
-1698.795274 -53.984118 -20.000000
-1698.818000 -55.983989 -20.000000
-1698.840726 -57.983860 -20.000000
-1698.863451 -59.983731 -20.000000
-1698.886177 -61.983602 -20.000000
-1698.908903 -63.983473 -20.000000
-1698.931629 -65.983344 -20.000000
-1698.954355 -67.983214 -20.000000
-1698.977081 -69.983085 -20.000000
-1698.999806 -71.982956 -20.000000
-1699.022532 -73.982827 -20.000000
-1699.045258 -75.982698 -20.000000
-1699.067984 -77.982569 -20.000000
-1699.090710 -79.982440 -20.000000
-1699.113435 -81.982311 -20.000000
-1699.136161 -83.982181 -20.000000
-1699.158887 -85.982052 -20.000000
-1699.181613 -87.981923 -20.000000
-1699.204339 -89.981794 -20.000000
-1699.227064 -91.981665 -20.000000
-1699.249790 -93.981536 -20.000000
-1699.272516 -95.981407 -20.000000
-1699.295242 -97.981278 -20.000000
-1699.317968 -99.981149 -20.000000
-1699.340693 -101.981019 -20.000000
-1699.363419 -103.980890 -20.000000
-1699.386145 -105.980761 -20.000000
-1699.408871 -107.980632 -20.000000
-1699.431597 -109.980503 -20.000000
-1699.454322 -111.980374 -20.000000
-1699.477048 -113.980245 -20.000000
-1699.499774 -115.980116 -20.000000
-1699.522500 -117.979986 -20.000000
-1699.545226 -119.979857 -20.000000
-1699.567951 -121.979728 -20.000000
-1699.590677 -123.979599 -20.000000
-1699.613403 -125.979470 -20.000000
-1699.636129 -127.979341 -20.000000
-1699.658855 -129.979212 -20.000000
-1699.681580 -131.979083 -20.000000
-1699.704306 -133.978953 -20.000000
-1699.727032 -135.978824 -20.000000
-1699.749758 -137.978695 -20.000000
-1699.772484 -139.978566 -20.000000
-1699.795210 -141.978437 -20.000000
-1699.817935 -143.978308 -20.000000
-1699.840661 -145.978179 -20.000000
-1699.863387 -147.978050 -20.000000
-1699.886113 -149.977921 -20.000000
-1699.908839 -151.977791 -20.000000
-1699.931564 -153.977662 -20.000000
-1699.954290 -155.977533 -20.000000
-1699.977016 -157.977404 -20.000000
-1699.999742 -159.977275 -20.000000
-1700.022468 -161.977146 -20.000000
-1700.045193 -163.977017 -20.000000
-1700.067919 -165.976888 -20.000000
-1700.090645 -167.976758 -20.000000
-1700.113371 -169.976629 -20.000000
-1700.136097 -171.976500 -20.000000
-1700.158822 -173.976371 -20.000000
-1700.181548 -175.976242 -20.000000
-1700.204274 -177.976113 -20.000000
-1700.227000 -179.975984 -20.000000
-1700.249726 -181.975855 -20.000000
-1700.272451 -183.975725 -20.000000
-1700.295177 -185.975596 -20.000000
-1700.317903 -187.975467 -20.000000
-1700.340629 -189.975338 -20.000000
-1700.363355 -191.975209 -20.000000
-1700.386080 -193.975080 -20.000000
-1700.408806 -195.974951 -20.000000
-1700.431532 -197.974822 -20.000000
-1700.454258 -199.974693 -20.000000
-1700.476984 -201.974563 -20.000000
-1700.499709 -203.974434 -20.000000
-1700.522435 -205.974305 -20.000000
-1700.545161 -207.974176 -20.000000
-1700.567887 -209.974047 -20.000000
-1700.590613 -211.973918 -20.000000
-1700.613339 -213.973789 -20.000000
-1700.636064 -215.973660 -20.000000
-1700.658790 -217.973530 -20.000000
-1700.681516 -219.973401 -20.000000
-1700.704242 -221.973272 -20.000000
-1700.726968 -223.973143 -20.000000
-1700.749693 -225.973014 -20.000000
-1700.772419 -227.972885 -20.000000
-1700.795145 -229.972756 -20.000000
-1700.817871 -231.972627 -20.000000
-1700.840597 -233.972497 -20.000000
-1700.863322 -235.972368 -20.000000
-1700.886048 -237.972239 -20.000000
-1700.908774 -239.972110 -20.000000
-1700.931500 -241.971981 -20.000000
-1700.954226 -243.971852 -20.000000
-1700.976951 -245.971723 -20.000000
-1700.999677 -247.971594 -20.000000
-1701.022403 -249.971465 -20.000000
-1701.045129 -251.971335 -20.000000
-1701.067855 -253.971206 -20.000000
-1701.090580 -255.971077 -20.000000
-1701.113306 -257.970948 -20.000000
-1701.136032 -259.970819 -20.000000
-1701.158758 -261.970690 -20.000000
-1701.181484 -263.970561 -20.000000
-1701.204209 -265.970432 -20.000000
-1701.226935 -267.970302 -20.000000
-1701.249661 -269.970173 -20.000000
-1701.272387 -271.970044 -20.000000
-1701.295113 -273.969915 -20.000000
-1701.317838 -275.969786 -20.000000
-1701.340564 -277.969657 -20.000000
-1701.363290 -279.969528 -20.000000
-1701.386016 -281.969399 -20.000000
-1701.408742 -283.969270 -20.000000
-1701.431468 -285.969140 -20.000000
-1701.454193 -287.969011 -20.000000
-1701.476919 -289.968882 -20.000000
-1701.499645 -291.968753 -20.000000
-1701.522371 -293.968624 -20.000000
-1701.545097 -295.968495 -20.000000
-1701.567822 -297.968366 -20.000000
-1701.590548 -299.968237 -20.000000
-1701.613274 -301.968107 -20.000000
-1701.636000 -303.967978 -20.000000
-1701.658726 -305.967849 -20.000000
-1701.681451 -307.967720 -20.000000
-1701.704177 -309.967591 -20.000000
-1701.726903 -311.967462 -20.000000
-1701.749629 -313.967333 -20.000000
-1701.772355 -315.967204 -20.000000
-1701.795080 -317.967074 -20.000000
-1701.817806 -319.966945 -20.000000
-1701.840532 -321.966816 -20.000000
-1701.863258 -323.966687 -20.000000
-1701.885984 -325.966558 -20.000000
-1701.908709 -327.966429 -20.000000
-1701.931435 -329.966300 -20.000000
-1701.954161 -331.966171 -20.000000
-1701.976887 -333.966042 -20.000000
-1701.999613 -335.965912 -20.000000
-1702.022338 -337.965783 -20.000000
-1702.045064 -339.965654 -20.000000
-1702.067790 -341.965525 -20.000000
-1702.090516 -343.965396 -20.000000
-1702.113242 -345.965267 -20.000000
-1702.135967 -347.965138 -20.000000
-1702.158693 -349.965009 -20.000000
-1702.181419 -351.964879 -20.000000
-1702.204145 -353.964750 -20.000000
-1702.226871 -355.964621 -20.000000
-1702.249597 -357.964492 -20.000000
-1702.272322 -359.964363 -20.000000
-1702.295048 -361.964234 -20.000000
-1702.317774 -363.964105 -20.000000
-1702.340500 -365.963976 -20.000000
-1702.363226 -367.963846 -20.000000
-1702.385951 -369.963717 -20.000000
-1702.408677 -371.963588 -20.000000
-1702.431403 -373.963459 -20.000000
-1702.454129 -375.963330 -20.000000
-1702.476855 -377.963201 -20.000000
-1702.499580 -379.963072 -20.000000
-1702.522306 -381.962943 -20.000000
-1702.545032 -383.962814 -20.000000
-1702.567758 -385.962684 -20.000000
-1702.590484 -387.962555 -20.000000
-1702.613209 -389.962426 -20.000000
-1702.635935 -391.962297 -20.000000
-1702.658661 -393.962168 -20.000000
-1702.681387 -395.962039 -20.000000
-1702.704113 -397.961910 -20.000000
-1702.726838 -399.961781 -20.000000
-1702.749564 -401.961651 -20.000000
-1702.772290 -403.961522 -20.000000
-1702.795016 -405.961393 -20.000000
-1702.817742 -407.961264 -20.000000
-1702.840467 -409.961135 -20.000000
-1702.863193 -411.961006 -20.000000
-1702.885919 -413.960877 -20.000000
-1702.908645 -415.960748 -20.000000
-1702.931371 -417.960618 -20.000000
-1702.954096 -419.960489 -20.000000
-1702.976822 -421.960360 -20.000000
-1702.999548 -423.960231 -20.000000
-1703.022274 -425.960102 -20.000000
-1703.045000 -427.959973 -20.000000
-1703.067725 -429.959844 -20.000000
-1703.090451 -431.959715 -20.000000
-1703.113177 -433.959586 -20.000000
-1703.135903 -435.959456 -20.000000
-1703.158629 -437.959327 -20.000000
-1703.181355 -439.959198 -20.000000
-1703.204080 -441.959069 -20.000000
-1703.226806 -443.958940 -20.000000
-1703.249532 -445.958811 -20.000000
-1703.272258 -447.958682 -20.000000
-1703.294984 -449.958553 -20.000000
-1703.317709 -451.958423 -20.000000
-1703.340435 -453.958294 -20.000000
-1703.363161 -455.958165 -20.000000
-1703.385887 -457.958036 -20.000000
-1703.408613 -459.957907 -20.000000
-1703.431338 -461.957778 -20.000000
-1703.454064 -463.957649 -20.000000
-1703.476790 -465.957520 -20.000000
-1703.499516 -467.957390 -20.000000
-1703.522242 -469.957261 -20.000000
-1703.544967 -471.957132 -20.000000
-1703.567693 -473.957003 -20.000000
-1703.590419 -475.956874 -20.000000
-1703.613145 -477.956745 -20.000000
-1703.635871 -479.956616 -20.000000
-1703.658596 -481.956487 -20.000000
-1703.681322 -483.956358 -20.000000
-1703.704048 -485.956228 -20.000000
-1703.726774 -487.956099 -20.000000
-1703.749500 -489.955970 -20.000000
-1703.772225 -491.955841 -20.000000
-1703.794951 -493.955712 -20.000000
-1703.817677 -495.955583 -20.000000
-1703.840403 -497.955454 -20.000000
-1703.863129 -499.955325 -20.000000
-1703.885854 -501.955195 -20.000000
-1703.908580 -503.955066 -20.000000
-1703.931306 -505.954937 -20.000000
-1703.954032 -507.954808 -20.000000
-1703.976758 -509.954679 -20.000000
-1703.999484 -511.954550 -20.000000
-1704.022209 -513.954421 -20.000000
-1704.044935 -515.954292 -20.000000
-1704.067661 -517.954162 -20.000000
-1704.090387 -519.954033 -20.000000
-1704.113113 -521.953904 -20.000000
-1704.135838 -523.953775 -20.000000
-1704.158564 -525.953646 -20.000000
-1704.181290 -527.953517 -20.000000
-1704.204016 -529.953388 -20.000000
-1704.226742 -531.953259 -20.000000
-1704.249467 -533.953130 -20.000000
-1704.272193 -535.953000 -20.000000
-1704.294919 -537.952871 -20.000000
-1704.317645 -539.952742 -20.000000
-1704.340371 -541.952613 -20.000000
-1704.363096 -543.952484 -20.000000
-1704.385822 -545.952355 -20.000000
-1704.408548 -547.952226 -20.000000
-1704.431274 -549.952097 -20.000000
-1704.454000 -551.951967 -20.000000
-1704.476725 -553.951838 -20.000000
-1704.499451 -555.951709 -20.000000
-1704.522177 -557.951580 -20.000000
-1704.544903 -559.951451 -20.000000
-1704.567629 -561.951322 -20.000000
-1704.590354 -563.951193 -20.000000
-1704.613080 -565.951064 -20.000000
-1704.635806 -567.950935 -20.000000
-1704.658532 -569.950805 -20.000000
-1704.681258 -571.950676 -20.000000
-1704.703983 -573.950547 -20.000000
-1704.726709 -575.950418 -20.000000
-1704.749435 -577.950289 -20.000000
-1704.772161 -579.950160 -20.000000
-1704.794887 -581.950031 -20.000000
-1704.817613 -583.949902 -20.000000
-1704.840338 -585.949772 -20.000000
-1704.863064 -587.949643 -20.000000
-1704.885790 -589.949514 -20.000000
-1704.908516 -591.949385 -20.000000
-1704.931242 -593.949256 -20.000000
-1704.953967 -595.949127 -20.000000
-1704.976693 -597.948998 -20.000000
-1704.999419 -599.948869 -20.000000
-1705.022145 -601.948739 -20.000000
-1705.044871 -603.948610 -20.000000
-1705.067596 -605.948481 -20.000000
-1705.090322 -607.948352 -20.000000
-1705.113048 -609.948223 -20.000000
-1705.135774 -611.948094 -20.000000
-1705.158500 -613.947965 -20.000000
-1705.181225 -615.947836 -20.000000
-1705.203951 -617.947707 -20.000000
-1705.226677 -619.947577 -20.000000
-1705.249403 -621.947448 -20.000000
-1705.272129 -623.947319 -20.000000
-1705.294854 -625.947190 -20.000000
-1705.317580 -627.947061 -20.000000
-1705.340306 -629.946932 -20.000000
-1705.363032 -631.946803 -20.000000
-1705.385758 -633.946674 -20.000000
-1705.408483 -635.946544 -20.000000
-1705.431209 -637.946415 -20.000000
-1705.453935 -639.946286 -20.000000
-1705.476661 -641.946157 -20.000000
-1705.499387 -643.946028 -20.000000
-1705.522112 -645.945899 -20.000000
-1705.544838 -647.945770 -20.000000
-1705.567564 -649.945641 -20.000000
-1705.590290 -651.945511 -20.000000
-1705.613016 -653.945382 -20.000000
-1705.635742 -655.945253 -20.000000
-1705.658467 -657.945124 -20.000000
-1705.681193 -659.944995 -20.000000
-1705.703919 -661.944866 -20.000000
-1705.726645 -663.944737 -20.000000
-1705.749371 -665.944608 -20.000000
-1705.772096 -667.944479 -20.000000
-1705.794822 -669.944349 -20.000000
-1705.817548 -671.944220 -20.000000
-1705.840274 -673.944091 -20.000000
-1705.863000 -675.943962 -20.000000
-1705.885725 -677.943833 -20.000000
-1705.908451 -679.943704 -20.000000
-1705.931177 -681.943575 -20.000000
-1705.953903 -683.943446 -20.000000
-1705.976629 -685.943316 -20.000000
-1705.999354 -687.943187 -20.000000
-1706.022080 -689.943058 -20.000000
-1706.044806 -691.942929 -20.000000
-1706.067532 -693.942800 -20.000000
-1706.090258 -695.942671 -20.000000
-1706.112983 -697.942542 -20.000000
-1706.135709 -699.942413 -20.000000
-1706.158435 -701.942283 -20.000000
-1706.181161 -703.942154 -20.000000
-1706.203887 -705.942025 -20.000000
-1706.226612 -707.941896 -20.000000
-1706.249338 -709.941767 -20.000000
-1706.272064 -711.941638 -20.000000
-1706.294790 -713.941509 -20.000000
-1706.317516 -715.941380 -20.000000
-1706.340241 -717.941251 -20.000000
-1706.362967 -719.941121 -20.000000
-1706.385693 -721.940992 -20.000000
-1706.408419 -723.940863 -20.000000
-1706.431145 -725.940734 -20.000000
-1706.453871 -727.940605 -20.000000
-1706.476596 -729.940476 -20.000000
-1706.499322 -731.940347 -20.000000
-1706.522048 -733.940218 -20.000000
-1706.544774 -735.940088 -20.000000
-1706.567500 -737.939959 -20.000000
-1706.590225 -739.939830 -20.000000
-1706.612951 -741.939701 -20.000000
-1706.635677 -743.939572 -20.000000
-1706.658403 -745.939443 -20.000000
-1706.681129 -747.939314 -20.000000
-1706.703854 -749.939185 -20.000000
-1706.726580 -751.939055 -20.000000
-1706.749306 -753.938926 -20.000000
-1706.772032 -755.938797 -20.000000
-1706.794758 -757.938668 -20.000000
-1706.817483 -759.938539 -20.000000
-1706.840209 -761.938410 -20.000000
-1706.862935 -763.938281 -20.000000
-1706.885661 -765.938152 -20.000000
-1706.908387 -767.938023 -20.000000
-1706.931112 -769.937893 -20.000000
-1706.953838 -771.937764 -20.000000
-1706.976564 -773.937635 -20.000000
-1706.999290 -775.937506 -20.000000
-1707.022016 -777.937377 -20.000000
-1707.044741 -779.937248 -20.000000
-1707.067467 -781.937119 -20.000000
-1707.090193 -783.936990 -20.000000
-1707.112919 -785.936860 -20.000000
-1707.135645 -787.936731 -20.000000
-1707.158370 -789.936602 -20.000000
-1707.181096 -791.936473 -20.000000
-1707.203822 -793.936344 -20.000000
-1707.226548 -795.936215 -20.000000
-1707.249274 -797.936086 -20.000000
-1707.272000 -799.935957 -20.000000
-1707.294725 -801.935827 -20.000000
-1707.317451 -803.935698 -20.000000
-1707.340177 -805.935569 -20.000000
-1707.362903 -807.935440 -20.000000
-1707.385629 -809.935311 -20.000000
-1707.408354 -811.935182 -20.000000
-1707.431080 -813.935053 -20.000000
-1707.453806 -815.934924 -20.000000
-1707.476532 -817.934795 -20.000000
-1707.499258 -819.934665 -20.000000
-1707.521983 -821.934536 -20.000000
-1707.544709 -823.934407 -20.000000
-1707.567435 -825.934278 -20.000000
-1707.590161 -827.934149 -20.000000
-1707.612887 -829.934020 -20.000000
-1707.635612 -831.933891 -20.000000
-1707.658338 -833.933762 -20.000000
-1707.681064 -835.933632 -20.000000
-1707.703790 -837.933503 -20.000000
-1707.726516 -839.933374 -20.000000
-1707.749241 -841.933245 -20.000000
-1707.771967 -843.933116 -20.000000
-1707.794693 -845.932987 -20.000000
-1707.817419 -847.932858 -20.000000
-1707.840145 -849.932729 -20.000000
-1707.862870 -851.932600 -20.000000
-1707.885596 -853.932470 -20.000000
-1707.908322 -855.932341 -20.000000
-1707.931048 -857.932212 -20.000000
-1707.953774 -859.932083 -20.000000
-1707.976499 -861.931954 -20.000000
-1707.999225 -863.931825 -20.000000
-1708.021951 -865.931696 -20.000000
-1708.044677 -867.931567 -20.000000
-1708.067403 -869.931437 -20.000000
-1708.090129 -871.931308 -20.000000
-1708.112854 -873.931179 -20.000000
-1708.135580 -875.931050 -20.000000
-1708.158306 -877.930921 -20.000000
-1708.181032 -879.930792 -20.000000
-1708.203758 -881.930663 -20.000000
-1708.226483 -883.930534 -20.000000
-1708.249209 -885.930404 -20.000000
-1708.271935 -887.930275 -20.000000
-1708.294661 -889.930146 -20.000000
-1708.317387 -891.930017 -20.000000
-1708.340112 -893.929888 -20.000000
-1708.362838 -895.929759 -20.000000
-1708.385564 -897.929630 -20.000000
-1708.408290 -899.929501 -20.000000
-1708.431016 -901.929372 -20.000000
-1708.453741 -903.929242 -20.000000
-1708.476467 -905.929113 -20.000000
-1708.499193 -907.928984 -20.000000
-1708.521919 -909.928855 -20.000000
-1708.544645 -911.928726 -20.000000
-1708.567370 -913.928597 -20.000000
-1708.590096 -915.928468 -20.000000
-1708.612822 -917.928339 -20.000000
-1708.635548 -919.928209 -20.000000
-1708.658274 -921.928080 -20.000000
-1708.680999 -923.927951 -20.000000
-1708.703725 -925.927822 -20.000000
-1708.726451 -927.927693 -20.000000
-1708.749177 -929.927564 -20.000000
-1708.771903 -931.927435 -20.000000
-1708.794628 -933.927306 -20.000000
-1708.817354 -935.927176 -20.000000
-1708.840080 -937.927047 -20.000000
-1708.862806 -939.926918 -20.000000
-1708.885532 -941.926789 -20.000000
-1708.908257 -943.926660 -20.000000
-1708.930983 -945.926531 -20.000000
-1708.953709 -947.926402 -20.000000
-1708.976435 -949.926273 -20.000000
-1708.999161 -951.926144 -20.000000
-1709.021887 -953.926014 -20.000000
-1709.044612 -955.925885 -20.000000
-1709.067338 -957.925756 -20.000000
-1709.090064 -959.925627 -20.000000
-1709.112790 -961.925498 -20.000000
-1709.135516 -963.925369 -20.000000
-1709.158241 -965.925240 -20.000000
-1709.180967 -967.925111 -20.000000
-1709.203693 -969.924981 -20.000000
-1709.226419 -971.924852 -20.000000
-1709.249145 -973.924723 -20.000000
-1709.271870 -975.924594 -20.000000
-1709.294596 -977.924465 -20.000000
-1709.317322 -979.924336 -20.000000
-1709.340048 -981.924207 -20.000000
-1709.362774 -983.924078 -20.000000
-1709.385499 -985.923948 -20.000000
-1709.408225 -987.923819 -20.000000
-1709.430951 -989.923690 -20.000000
-1709.453677 -991.923561 -20.000000
-1709.476403 -993.923432 -20.000000
-1709.499128 -995.923303 -20.000000
-1709.521854 -997.923174 -20.000000
-1709.544580 -999.923045 -20.000000
-1709.567306 -1001.922916 -20.000000
-1709.590032 -1003.922786 -20.000000
-1709.612757 -1005.922657 -20.000000
-1709.635483 -1007.922528 -20.000000
-1709.658209 -1009.922399 -20.000000
-1709.680935 -1011.922270 -20.000000
-1709.703661 -1013.922141 -20.000000
-1709.726386 -1015.922012 -20.000000
-1709.749112 -1017.921883 -20.000000
-1709.771838 -1019.921753 -20.000000
-1709.794564 -1021.921624 -20.000000
-1709.817290 -1023.921495 -20.000000
-1709.840016 -1025.921366 -20.000000
-1709.862741 -1027.921237 -20.000000
-1709.885467 -1029.921108 -20.000000
-1709.908193 -1031.920979 -20.000000
-1709.930919 -1033.920850 -20.000000
-1709.953645 -1035.920720 -20.000000
-1709.976370 -1037.920591 -20.000000
-1709.999096 -1039.920462 -20.000000
-1710.021822 -1041.920333 -20.000000
-1710.044548 -1043.920204 -20.000000
-1710.067274 -1045.920075 -20.000000
-1710.089999 -1047.919946 -20.000000
-1710.112725 -1049.919817 -20.000000
-1710.135451 -1051.919688 -20.000000
-1710.158177 -1053.919558 -20.000000
-1710.180903 -1055.919429 -20.000000
-1710.203628 -1057.919300 -20.000000
-1710.226354 -1059.919171 -20.000000
-1710.249080 -1061.919042 -20.000000
-1710.271806 -1063.918913 -20.000000
-1710.294532 -1065.918784 -20.000000
-1710.317257 -1067.918655 -20.000000
-1710.339983 -1069.918525 -20.000000
-1710.362709 -1071.918396 -20.000000
-1710.385435 -1073.918267 -20.000000
-1710.408161 -1075.918138 -20.000000
-1710.430886 -1077.918009 -20.000000
-1710.453612 -1079.917880 -20.000000
-1710.476338 -1081.917751 -20.000000
-1710.499064 -1083.917622 -20.000000
-1710.521790 -1085.917492 -20.000000
-1710.544515 -1087.917363 -20.000000
-1710.567241 -1089.917234 -20.000000
-1710.589967 -1091.917105 -20.000000
-1710.612693 -1093.916976 -20.000000
-1710.635419 -1095.916847 -20.000000
-1710.658145 -1097.916718 -20.000000
-1710.680870 -1099.916589 -20.000000
-1710.703596 -1101.916460 -20.000000
-1710.726322 -1103.916330 -20.000000
-1710.749048 -1105.916201 -20.000000
-1710.771774 -1107.916072 -20.000000
-1710.794499 -1109.915943 -20.000000
-1710.817225 -1111.915814 -20.000000
-1710.839951 -1113.915685 -20.000000
-1710.862677 -1115.915556 -20.000000
-1710.885403 -1117.915427 -20.000000
-1710.908128 -1119.915297 -20.000000
-1710.930854 -1121.915168 -20.000000
-1710.953580 -1123.915039 -20.000000
-1710.976306 -1125.914910 -20.000000
-1710.999032 -1127.914781 -20.000000
-1711.021757 -1129.914652 -20.000000
-1711.044483 -1131.914523 -20.000000
-1711.067209 -1133.914394 -20.000000
-1711.089935 -1135.914265 -20.000000
-1711.112661 -1137.914135 -20.000000
-1711.135386 -1139.914006 -20.000000
-1711.158112 -1141.913877 -20.000000
-1711.180838 -1143.913748 -20.000000
-1711.203564 -1145.913619 -20.000000
-1711.226290 -1147.913490 -20.000000
-1711.249015 -1149.913361 -20.000000
-1711.271741 -1151.913232 -20.000000
-1711.294467 -1153.913102 -20.000000
-1711.317193 -1155.912973 -20.000000
-1711.339919 -1157.912844 -20.000000
-1711.362644 -1159.912715 -20.000000
-1711.385370 -1161.912586 -20.000000
-1711.408096 -1163.912457 -20.000000
-1711.430822 -1165.912328 -20.000000
-1711.453548 -1167.912199 -20.000000
-1711.476274 -1169.912069 -20.000000
-1711.498999 -1171.911940 -20.000000
-1711.521725 -1173.911811 -20.000000
-1711.544451 -1175.911682 -20.000000
-1711.567177 -1177.911553 -20.000000
-1711.589903 -1179.911424 -20.000000
-1711.612628 -1181.911295 -20.000000
-1711.635354 -1183.911166 -20.000000
-1711.658080 -1185.911037 -20.000000
-1711.680806 -1187.910907 -20.000000
-1711.703532 -1189.910778 -20.000000
-1711.726257 -1191.910649 -20.000000
-1711.748983 -1193.910520 -20.000000
-1711.771709 -1195.910391 -20.000000
-1711.794435 -1197.910262 -20.000000
-1711.817161 -1199.910133 -20.000000
-1711.839886 -1201.910004 -20.000000
-1711.862612 -1203.909874 -20.000000
-1711.885338 -1205.909745 -20.000000
-1711.908064 -1207.909616 -20.000000
-1711.930790 -1209.909487 -20.000000
-1711.953515 -1211.909358 -20.000000
-1711.976241 -1213.909229 -20.000000
-1711.998967 -1215.909100 -20.000000
-1712.021693 -1217.908971 -20.000000
-1712.044419 -1219.908841 -20.000000
-1712.067144 -1221.908712 -20.000000
-1712.089870 -1223.908583 -20.000000
-1712.112596 -1225.908454 -20.000000
-1712.135322 -1227.908325 -20.000000
-1712.158048 -1229.908196 -20.000000
-1712.180773 -1231.908067 -20.000000
-1712.203499 -1233.907938 -20.000000
-1712.226225 -1235.907809 -20.000000
-1712.248951 -1237.907679 -20.000000
-1712.271677 -1239.907550 -20.000000
-1712.294403 -1241.907421 -20.000000
-1712.317128 -1243.907292 -20.000000
-1712.339854 -1245.907163 -20.000000
-1712.362580 -1247.907034 -20.000000
-1712.385306 -1249.906905 -20.000000
-1712.408032 -1251.906776 -20.000000
-1712.430757 -1253.906646 -20.000000
-1712.453483 -1255.906517 -20.000000
-1712.476209 -1257.906388 -20.000000
-1712.498935 -1259.906259 -20.000000
-1712.521661 -1261.906130 -20.000000
-1712.544386 -1263.906001 -20.000000
-1712.567112 -1265.905872 -20.000000
-1712.589838 -1267.905743 -20.000000
-1712.612564 -1269.905613 -20.000000
-1712.635290 -1271.905484 -20.000000
-1712.658015 -1273.905355 -20.000000
-1712.680741 -1275.905226 -20.000000
-1712.703467 -1277.905097 -20.000000
-1712.726193 -1279.904968 -20.000000
-1712.748919 -1281.904839 -20.000000
-1712.771644 -1283.904710 -20.000000
-1712.794370 -1285.904581 -20.000000
-1712.817096 -1287.904451 -20.000000
-1712.839822 -1289.904322 -20.000000
-1712.862548 -1291.904193 -20.000000
-1712.885273 -1293.904064 -20.000000
-1712.907999 -1295.903935 -20.000000
-1712.930725 -1297.903806 -20.000000
-1712.953451 -1299.903677 -20.000000
-1712.976177 -1301.903548 -20.000000
-1712.998902 -1303.903418 -20.000000
-1713.021628 -1305.903289 -20.000000
-1713.044354 -1307.903160 -20.000000
-1713.067080 -1309.903031 -20.000000
-1713.089806 -1311.902902 -20.000000
-1713.112532 -1313.902773 -20.000000
-1713.135257 -1315.902644 -20.000000
-1713.157983 -1317.902515 -20.000000
-1713.180709 -1319.902385 -20.000000
-1713.203435 -1321.902256 -20.000000
-1713.226161 -1323.902127 -20.000000
-1713.248886 -1325.901998 -20.000000
-1713.271612 -1327.901869 -20.000000
-1713.294338 -1329.901740 -20.000000
-1713.317064 -1331.901611 -20.000000
-1713.339790 -1333.901482 -20.000000
-1713.362515 -1335.901353 -20.000000
-1713.385241 -1337.901223 -20.000000
-1713.407967 -1339.901094 -20.000000
-1713.430693 -1341.900965 -20.000000
-1713.453419 -1343.900836 -20.000000
-1713.476144 -1345.900707 -20.000000
-1713.498870 -1347.900578 -20.000000
-1713.521596 -1349.900449 -20.000000
-1713.544322 -1351.900320 -20.000000
-1713.567048 -1353.900190 -20.000000
-1713.589773 -1355.900061 -20.000000
-1713.612499 -1357.899932 -20.000000
-1713.635225 -1359.899803 -20.000000
-1713.657951 -1361.899674 -20.000000
-1713.680677 -1363.899545 -20.000000
-1713.703402 -1365.899416 -20.000000
-1713.726128 -1367.899287 -20.000000
-1713.748854 -1369.899157 -20.000000
-1713.771580 -1371.899028 -20.000000
-1713.794306 -1373.898899 -20.000000
-1713.817031 -1375.898770 -20.000000
-1713.839757 -1377.898641 -20.000000
-1713.862483 -1379.898512 -20.000000
-1713.885209 -1381.898383 -20.000000
-1713.907935 -1383.898254 -20.000000
-1713.930661 -1385.898125 -20.000000
-1713.953386 -1387.897995 -20.000000
-1713.976112 -1389.897866 -20.000000
-1713.998838 -1391.897737 -20.000000
-1714.021564 -1393.897608 -20.000000
-1714.044290 -1395.897479 -20.000000
-1714.067015 -1397.897350 -20.000000
-1714.089741 -1399.897221 -20.000000
-1714.112467 -1401.897092 -20.000000
-1714.135193 -1403.896962 -20.000000
-1714.157919 -1405.896833 -20.000000
-1714.180644 -1407.896704 -20.000000
-1714.203370 -1409.896575 -20.000000
-1714.226096 -1411.896446 -20.000000
-1714.248822 -1413.896317 -20.000000
-1714.271548 -1415.896188 -20.000000
-1714.294273 -1417.896059 -20.000000
-1714.316999 -1419.895930 -20.000000
-1714.339725 -1421.895800 -20.000000
-1714.362451 -1423.895671 -20.000000
-1714.385177 -1425.895542 -20.000000
-1714.407902 -1427.895413 -20.000000
-1714.430628 -1429.895284 -20.000000
-1714.453354 -1431.895155 -20.000000
-1714.476080 -1433.895026 -20.000000
-1714.498806 -1435.894897 -20.000000
-1714.521531 -1437.894767 -20.000000
-1714.544257 -1439.894638 -20.000000
-1714.566983 -1441.894509 -20.000000
-1714.589709 -1443.894380 -20.000000
-1714.612435 -1445.894251 -20.000000
-1714.635160 -1447.894122 -20.000000
-1714.657886 -1449.893993 -20.000000
-1714.680612 -1451.893864 -20.000000
-1714.703338 -1453.893734 -20.000000
-1714.726064 -1455.893605 -20.000000
-1714.748790 -1457.893476 -20.000000
-1714.771515 -1459.893347 -20.000000
-1714.794241 -1461.893218 -20.000000
-1714.816967 -1463.893089 -20.000000
-1714.839693 -1465.892960 -20.000000
-1714.862419 -1467.892831 -20.000000
-1714.885144 -1469.892702 -20.000000
-1714.907870 -1471.892572 -20.000000
-1714.930596 -1473.892443 -20.000000
-1714.953322 -1475.892314 -20.000000
-1714.976048 -1477.892185 -20.000000
-1714.998773 -1479.892056 -20.000000
-1715.021499 -1481.891927 -20.000000
-1715.044225 -1483.891798 -20.000000
-1715.066951 -1485.891669 -20.000000
-1715.089677 -1487.891539 -20.000000
-1715.112402 -1489.891410 -20.000000
-1715.135128 -1491.891281 -20.000000
-1715.157854 -1493.891152 -20.000000
-1715.180580 -1495.891023 -20.000000
-1715.203306 -1497.890894 -20.000000
-1715.226031 -1499.890765 -20.000000
-1715.248757 -1501.890636 -20.000000
-1715.271483 -1503.890506 -20.000000
-1715.294209 -1505.890377 -20.000000
-1715.316935 -1507.890248 -20.000000
-1715.339660 -1509.890119 -20.000000
-1715.362386 -1511.889990 -20.000000
-1715.385112 -1513.889861 -20.000000
-1715.407838 -1515.889732 -20.000000
-1715.430564 -1517.889603 -20.000000
-1715.453289 -1519.889474 -20.000000
-1715.476015 -1521.889344 -20.000000
-1715.498741 -1523.889215 -20.000000
-1715.521467 -1525.889086 -20.000000
-1715.544193 -1527.888957 -20.000000
-1715.566918 -1529.888828 -20.000000
-1715.589644 -1531.888699 -20.000000
-1715.612370 -1533.888570 -20.000000
-1715.635096 -1535.888441 -20.000000
-1715.657822 -1537.888311 -20.000000
-1715.680548 -1539.888182 -20.000000
-1715.703273 -1541.888053 -20.000000
-1715.725999 -1543.887924 -20.000000
-1715.748725 -1545.887795 -20.000000
-1715.771451 -1547.887666 -20.000000
-1715.794177 -1549.887537 -20.000000
-1715.816902 -1551.887408 -20.000000
-1715.839628 -1553.887278 -20.000000
-1715.862354 -1555.887149 -20.000000
-1715.885080 -1557.887020 -20.000000
-1715.907806 -1559.886891 -20.000000
-1715.930531 -1561.886762 -20.000000
-1715.953257 -1563.886633 -20.000000
-1715.975983 -1565.886504 -20.000000
-1715.998709 -1567.886375 -20.000000
-1716.021435 -1569.886246 -20.000000
-1716.044160 -1571.886116 -20.000000
-1716.066886 -1573.885987 -20.000000
-1716.089612 -1575.885858 -20.000000
-1716.112338 -1577.885729 -20.000000
-1716.135064 -1579.885600 -20.000000
-1716.157789 -1581.885471 -20.000000
-1716.180515 -1583.885342 -20.000000
-1716.203241 -1585.885213 -20.000000
-1716.225967 -1587.885083 -20.000000
-1716.248693 -1589.884954 -20.000000
-1716.271418 -1591.884825 -20.000000
-1716.294144 -1593.884696 -20.000000
-1716.316870 -1595.884567 -20.000000
-1716.339596 -1597.884438 -20.000000
-1716.362322 -1599.884309 -20.000000
-1716.385047 -1601.884180 -20.000000
-1716.407773 -1603.884050 -20.000000
-1716.430499 -1605.883921 -20.000000
-1716.453225 -1607.883792 -20.000000
-1716.475951 -1609.883663 -20.000000
-1716.498677 -1611.883534 -20.000000
-1716.521402 -1613.883405 -20.000000
-1716.544128 -1615.883276 -20.000000
-1716.566854 -1617.883147 -20.000000
-1716.589580 -1619.883018 -20.000000
-1716.612306 -1621.882888 -20.000000
-1716.635031 -1623.882759 -20.000000
-1716.657757 -1625.882630 -20.000000
-1716.680483 -1627.882501 -20.000000
-1716.703209 -1629.882372 -20.000000
-1716.725935 -1631.882243 -20.000000
-1716.748660 -1633.882114 -20.000000
-1716.771386 -1635.881985 -20.000000
-1716.794112 -1637.881855 -20.000000
-1716.816838 -1639.881726 -20.000000
-1716.839564 -1641.881597 -20.000000
-1716.862289 -1643.881468 -20.000000
-1716.885015 -1645.881339 -20.000000
-1716.907741 -1647.881210 -20.000000
-1716.930467 -1649.881081 -20.000000
-1716.953193 -1651.880952 -20.000000
-1716.975918 -1653.880822 -20.000000
-1716.998644 -1655.880693 -20.000000
-1717.021370 -1657.880564 -20.000000
-1717.044096 -1659.880435 -20.000000
-1717.066822 -1661.880306 -20.000000
-1717.089547 -1663.880177 -20.000000
-1717.112273 -1665.880048 -20.000000
-1717.134999 -1667.879919 -20.000000
-1717.157725 -1669.879790 -20.000000
-1717.180451 -1671.879660 -20.000000
-1717.203176 -1673.879531 -20.000000
-1717.225902 -1675.879402 -20.000000
-1717.248628 -1677.879273 -20.000000
-1717.271354 -1679.879144 -20.000000
-1717.294080 -1681.879015 -20.000000
-1717.316806 -1683.878886 -20.000000
-1717.339531 -1685.878757 -20.000000
-1717.362257 -1687.878627 -20.000000
-1717.384983 -1689.878498 -20.000000
-1717.407709 -1691.878369 -20.000000
-1717.430435 -1693.878240 -20.000000
-1717.453160 -1695.878111 -20.000000
-1717.475886 -1697.877982 -20.000000
-1717.498612 -1699.877853 -20.000000
-1717.521338 -1701.877724 -20.000000
-1717.544064 -1703.877594 -20.000000
-1717.566789 -1705.877465 -20.000000
-1717.589515 -1707.877336 -20.000000
-1717.612241 -1709.877207 -20.000000
-1717.634967 -1711.877078 -20.000000
-1717.657693 -1713.876949 -20.000000
-1717.680418 -1715.876820 -20.000000
-1717.703144 -1717.876691 -20.000000
-1717.725870 -1719.876562 -20.000000
-1717.748596 -1721.876432 -20.000000
-1717.771322 -1723.876303 -20.000000
-1717.794047 -1725.876174 -20.000000
-1717.816773 -1727.876045 -20.000000
-1717.839499 -1729.875916 -20.000000
-1717.862225 -1731.875787 -20.000000
-1717.884951 -1733.875658 -20.000000
-1717.907676 -1735.875529 -20.000000
-1717.930402 -1737.875399 -20.000000
-1717.953128 -1739.875270 -20.000000
-1717.975854 -1741.875141 -20.000000
-1717.998580 -1743.875012 -20.000000
-1718.021305 -1745.874883 -20.000000
-1718.044031 -1747.874754 -20.000000
-1718.066757 -1749.874625 -20.000000
-1718.089483 -1751.874496 -20.000000
-1718.112209 -1753.874367 -20.000000
-1718.134935 -1755.874237 -20.000000
-1718.157660 -1757.874108 -20.000000
-1718.180386 -1759.873979 -20.000000
-1718.203112 -1761.873850 -20.000000
-1718.225838 -1763.873721 -20.000000
-1718.248564 -1765.873592 -20.000000
-1718.271289 -1767.873463 -20.000000
-1718.294015 -1769.873334 -20.000000
-1718.316741 -1771.873204 -20.000000
-1718.339467 -1773.873075 -20.000000
-1718.362193 -1775.872946 -20.000000
-1718.384918 -1777.872817 -20.000000
-1718.407644 -1779.872688 -20.000000
-1718.430370 -1781.872559 -20.000000
-1718.453096 -1783.872430 -20.000000
-1718.475822 -1785.872301 -20.000000
-1718.498547 -1787.872171 -20.000000
-1718.521273 -1789.872042 -20.000000
-1718.543999 -1791.871913 -20.000000
-1718.566725 -1793.871784 -20.000000
-1718.589451 -1795.871655 -20.000000
-1718.612176 -1797.871526 -20.000000
-1718.634902 -1799.871397 -20.000000
-1718.657628 -1801.871268 -20.000000
-1718.680354 -1803.871139 -20.000000
-1718.703080 -1805.871009 -20.000000
-1718.725805 -1807.870880 -20.000000
-1718.748531 -1809.870751 -20.000000
-1718.771257 -1811.870622 -20.000000
-1718.793983 -1813.870493 -20.000000
-1718.816709 -1815.870364 -20.000000
-1718.839434 -1817.870235 -20.000000
-1718.862160 -1819.870106 -20.000000
-1718.884886 -1821.869976 -20.000000
-1718.907612 -1823.869847 -20.000000
-1718.930338 -1825.869718 -20.000000
-1718.953064 -1827.869589 -20.000000
-1718.975789 -1829.869460 -20.000000
-1718.998515 -1831.869331 -20.000000
-1719.021241 -1833.869202 -20.000000
-1719.043967 -1835.869073 -20.000000
-1719.066693 -1837.868943 -20.000000
-1719.089418 -1839.868814 -20.000000
-1719.112144 -1841.868685 -20.000000
-1719.134870 -1843.868556 -20.000000
-1719.157596 -1845.868427 -20.000000
-1719.180322 -1847.868298 -20.000000
-1719.203047 -1849.868169 -20.000000
-1719.225773 -1851.868040 -20.000000
-1719.248499 -1853.867911 -20.000000
-1719.271225 -1855.867781 -20.000000
-1719.293951 -1857.867652 -20.000000
-1719.316676 -1859.867523 -20.000000
-1719.339402 -1861.867394 -20.000000
-1719.362128 -1863.867265 -20.000000
-1719.384854 -1865.867136 -20.000000
-1719.407580 -1867.867007 -20.000000
-1719.430305 -1869.866878 -20.000000
-1719.453031 -1871.866748 -20.000000
-1719.475757 -1873.866619 -20.000000
-1719.498483 -1875.866490 -20.000000
-1719.521209 -1877.866361 -20.000000
-1719.543934 -1879.866232 -20.000000
-1719.566660 -1881.866103 -20.000000
-1719.589386 -1883.865974 -20.000000
-1719.612112 -1885.865845 -20.000000
-1719.634838 -1887.865715 -20.000000
-1719.657563 -1889.865586 -20.000000
-1719.680289 -1891.865457 -20.000000
-1719.703015 -1893.865328 -20.000000
-1719.725741 -1895.865199 -20.000000
-1719.748467 -1897.865070 -20.000000
-1719.771193 -1899.864941 -20.000000
-1719.793918 -1901.864812 -20.000000
-1719.816644 -1903.864683 -20.000000
-1719.839370 -1905.864553 -20.000000
-1719.862096 -1907.864424 -20.000000
-1719.884822 -1909.864295 -20.000000
-1719.907547 -1911.864166 -20.000000
-1719.930273 -1913.864037 -20.000000
-1719.952999 -1915.863908 -20.000000
-1719.975725 -1917.863779 -20.000000
-1719.998451 -1919.863650 -20.000000
-1720.021176 -1921.863520 -20.000000
-1720.043902 -1923.863391 -20.000000
-1720.066628 -1925.863262 -20.000000
-1720.089354 -1927.863133 -20.000000
-1720.112080 -1929.863004 -20.000000
-1720.134805 -1931.862875 -20.000000
-1720.157531 -1933.862746 -20.000000
-1720.180257 -1935.862617 -20.000000
-1720.202983 -1937.862487 -20.000000
-1720.225709 -1939.862358 -20.000000
-1720.248434 -1941.862229 -20.000000
-1720.271160 -1943.862100 -20.000000
-1720.293886 -1945.861971 -20.000000
-1720.316612 -1947.861842 -20.000000
-1720.339338 -1949.861713 -20.000000
-1720.362063 -1951.861584 -20.000000
-1720.384789 -1953.861455 -20.000000
-1720.407515 -1955.861325 -20.000000
-1720.430241 -1957.861196 -20.000000
-1720.452967 -1959.861067 -20.000000
-1720.475692 -1961.860938 -20.000000
-1720.498418 -1963.860809 -20.000000
-1720.521144 -1965.860680 -20.000000
-1720.543870 -1967.860551 -20.000000
-1720.566596 -1969.860422 -20.000000
-1720.589322 -1971.860292 -20.000000
-1720.612047 -1973.860163 -20.000000
-1720.634773 -1975.860034 -20.000000
-1720.657499 -1977.859905 -20.000000
-1720.680225 -1979.859776 -20.000000
-1720.702951 -1981.859647 -20.000000
-1720.725676 -1983.859518 -20.000000
-1720.748402 -1985.859389 -20.000000
-1720.771128 -1987.859259 -20.000000
-1720.793854 -1989.859130 -20.000000
-1720.816580 -1991.859001 -20.000000
-1720.839305 -1993.858872 -20.000000
-1720.862031 -1995.858743 -20.000000
-1720.884757 -1997.858614 -20.000000
-1720.907483 -1999.858485 -20.000000
-1720.930209 -2001.858356 -20.000000
-1720.952934 -2003.858227 -20.000000
-1720.975660 -2005.858097 -20.000000
-1720.998386 -2007.857968 -20.000000
-1721.021112 -2009.857839 -20.000000
-1721.043838 -2011.857710 -20.000000
-1721.066563 -2013.857581 -20.000000
-1721.089289 -2015.857452 -20.000000
-1721.112015 -2017.857323 -20.000000
-1721.134741 -2019.857194 -20.000000
-1721.157467 -2021.857064 -20.000000
-1721.180192 -2023.856935 -20.000000
-1721.202918 -2025.856806 -20.000000
-1721.225644 -2027.856677 -20.000000
-1721.248370 -2029.856548 -20.000000
-1721.271096 -2031.856419 -20.000000
-1721.293821 -2033.856290 -20.000000
-1721.316547 -2035.856161 -20.000000
-1721.339273 -2037.856032 -20.000000
-1721.361999 -2039.855902 -20.000000
-1721.384725 -2041.855773 -20.000000
-1721.407451 -2043.855644 -20.000000
-1721.430176 -2045.855515 -20.000000
-1721.452902 -2047.855386 -20.000000
-1721.475628 -2049.855257 -20.000000
-1721.498354 -2051.855128 -20.000000
-1721.521080 -2053.854999 -20.000000
-1721.543805 -2055.854869 -20.000000
-1721.566531 -2057.854740 -20.000000
-1721.589257 -2059.854611 -20.000000
-1721.611983 -2061.854482 -20.000000
-1721.634709 -2063.854353 -20.000000
-1721.657434 -2065.854224 -20.000000
-1721.680160 -2067.854095 -20.000000
-1721.702886 -2069.853966 -20.000000
-1721.725612 -2071.853836 -20.000000
-1721.748338 -2073.853707 -20.000000
-1721.771063 -2075.853578 -20.000000
-1721.793789 -2077.853449 -20.000000
-1721.816515 -2079.853320 -20.000000
-1721.839241 -2081.853191 -20.000000
-1721.861967 -2083.853062 -20.000000
-1721.884692 -2085.852933 -20.000000
-1721.907418 -2087.852804 -20.000000
-1721.930144 -2089.852674 -20.000000
-1721.952870 -2091.852545 -20.000000
-1721.975596 -2093.852416 -20.000000
-1721.998321 -2095.852287 -20.000000
-1722.021047 -2097.852158 -20.000000
-1722.043773 -2099.852029 -20.000000
-1722.066499 -2101.851900 -20.000000
-1722.089225 -2103.851771 -20.000000
-1722.111950 -2105.851641 -20.000000
-1722.134676 -2107.851512 -20.000000
-1722.157402 -2109.851383 -20.000000
-1722.180128 -2111.851254 -20.000000
-1722.202854 -2113.851125 -20.000000
-1722.225579 -2115.850996 -20.000000
-1722.248305 -2117.850867 -20.000000
-1722.271031 -2119.850738 -20.000000
-1722.293757 -2121.850608 -20.000000
-1722.316483 -2123.850479 -20.000000
-1722.339209 -2125.850350 -20.000000
-1722.361934 -2127.850221 -20.000000
-1722.384660 -2129.850092 -20.000000
-1722.407386 -2131.849963 -20.000000
-1722.430112 -2133.849834 -20.000000
-1722.452838 -2135.849705 -20.000000
-1722.475563 -2137.849576 -20.000000
-1722.498289 -2139.849446 -20.000000
-1722.521015 -2141.849317 -20.000000
-1722.543741 -2143.849188 -20.000000
-1722.566467 -2145.849059 -20.000000
-1722.589192 -2147.848930 -20.000000
-1722.611918 -2149.848801 -20.000000
-1722.634644 -2151.848672 -20.000000
-1722.657370 -2153.848543 -20.000000
-1722.680096 -2155.848413 -20.000000
-1722.702821 -2157.848284 -20.000000
-1722.725547 -2159.848155 -20.000000
-1722.748273 -2161.848026 -20.000000
