-64.000000 -2580.692453 342.960326
-64.000000 -2581.922656 344.537222
-64.000000 -2583.152858 346.114118
-64.000000 -2584.383061 347.691014
-64.000000 -2585.613264 349.267911
-64.000000 -2586.843466 350.844807
-64.000000 -2588.073669 352.421703
-64.000000 -2589.303872 353.998599
-64.000000 -2590.534074 355.575495
-64.000000 -2591.764277 357.152391
-64.000000 -2592.994480 358.729287
-64.000000 -2594.224682 360.306184
-64.000000 -2595.454885 361.883080
-64.000000 -2596.685088 363.459976
-64.000000 -2597.915290 365.036872
-64.000000 -2599.145493 366.613768
-64.000000 -2600.375695 368.190664
-64.000000 -2601.605898 369.767560
-64.000000 -2602.836101 371.344456
-64.000000 -2604.066303 372.921353
-64.000000 -2605.296506 374.498249
-64.000000 -2606.526709 376.075145
-64.000000 -2607.756911 377.652041
-64.000000 -2608.987114 379.228937
-64.000000 -2610.217317 380.805833
-64.000000 -2611.447519 382.382729
-64.000000 -2612.677722 383.959626
-64.000000 -2613.907925 385.536522
-64.000000 -2615.138127 387.113418
-64.000000 -2616.368330 388.690314
-64.000000 -2617.598533 390.267210
-64.000000 -2618.828735 391.844106
-64.000000 -2620.058938 393.421002
-64.000000 -2621.289141 394.997899
-64.000000 -2622.519343 396.574795
-64.000000 -2623.749546 398.151691
-64.000000 -2624.979749 399.728587
-64.000000 -2626.209951 401.305483
-64.000000 -2627.440154 402.882379
-64.000000 -2628.670357 404.459275
-64.000000 -2629.900559 406.036171
-64.000000 -2631.130762 407.613068
-64.000000 -2632.360965 409.189964
-64.000000 -2633.591167 410.766860
-64.000000 -2634.821370 412.343756
-64.000000 -2636.051573 413.920652
-64.000000 -2637.281775 415.497548
-64.000000 -2638.511978 417.074444
-64.000000 -2639.742181 418.651341
-64.000000 -2640.972383 420.228237
-64.000000 -2642.202586 421.805133
-64.000000 -2643.432789 423.382029
-64.000000 -2644.662991 424.958925
-64.000000 -2645.893194 426.535821
-64.000000 -2647.123397 428.112717
-64.000000 -2648.353599 429.689613
-64.000000 -2649.583802 431.266510
-64.000000 -2650.814004 432.843406
-64.000000 -2652.044207 434.420302
-64.000000 -2653.274410 435.997198
-64.000000 -2654.504612 437.574094
-64.000000 -2655.734815 439.150990
-64.000000 -2656.965018 440.727886
-64.000000 -2658.195220 442.304783
-64.000000 -2659.425423 443.881679
-64.000000 -2660.655626 445.458575
-64.000000 -2661.885828 447.035471
-64.000000 -2663.116031 448.612367
-64.000000 -2664.346234 450.189263
-64.000000 -2665.576436 451.766159
-64.000000 -2666.806639 453.343055
-64.000000 -2668.036842 454.919952
-64.000000 -2669.267044 456.496848
-64.000000 -2670.497247 458.073744
-64.000000 -2672.000000 460.000000
-65.975787 -2672.029767 459.691167
-67.951575 -2672.059534 459.382334
-69.927362 -2672.089301 459.073501
-71.903150 -2672.119068 458.764668
-73.878937 -2672.148835 458.455835
-75.854725 -2672.178602 458.147002
-77.830512 -2672.208369 457.838169
-79.806300 -2672.238136 457.529335
-81.782087 -2672.267903 457.220502
-83.757875 -2672.297670 456.911669
-85.733662 -2672.327437 456.602836
-87.709449 -2672.357205 456.294003
-89.685237 -2672.386972 455.985170
-91.661024 -2672.416739 455.676337
-93.636812 -2672.446506 455.367504
-95.612599 -2672.476273 455.058671
-97.588387 -2672.506040 454.749838
-99.564174 -2672.535807 454.441005
-101.539962 -2672.565574 454.132172
-103.515749 -2672.595341 453.823339
-105.491537 -2672.625108 453.514506
-107.467324 -2672.654875 453.205673
-109.443111 -2672.684642 452.896839
-111.418899 -2672.714409 452.588006
-113.394686 -2672.744176 452.279173
-115.370474 -2672.773943 451.970340
-117.346261 -2672.803710 451.661507
-119.322049 -2672.833477 451.352674
-121.297836 -2672.863244 451.043841
-123.273624 -2672.893011 450.735008
-125.249411 -2672.922778 450.426175
-127.225198 -2672.952545 450.117342
-129.200986 -2672.982312 449.808509
-131.176773 -2673.012079 449.499676
-133.152561 -2673.041846 449.190843
-135.128348 -2673.071614 448.882010
-137.104136 -2673.101381 448.573177
-139.079923 -2673.131148 448.264343
-141.055711 -2673.160915 447.955510
-143.031498 -2673.190682 447.646677
-145.007286 -2673.220449 447.337844
-146.983073 -2673.250216 447.029011
-148.958860 -2673.279983 446.720178
-150.934648 -2673.309750 446.411345
-152.910435 -2673.339517 446.102512
-154.886223 -2673.369284 445.793679
-156.862010 -2673.399051 445.484846
-158.837798 -2673.428818 445.176013
-160.813585 -2673.458585 444.867180
-162.789373 -2673.488352 444.558347
-164.765160 -2673.518119 444.249514
-166.740948 -2673.547886 443.940681
-168.716735 -2673.577653 443.631847
-170.692522 -2673.607420 443.323014
-172.668310 -2673.637187 443.014181
-174.644097 -2673.666954 442.705348
-176.619885 -2673.696721 442.396515
-178.595672 -2673.726488 442.087682
-180.571460 -2673.756256 441.778849
-182.547247 -2673.786023 441.470016
-184.523035 -2673.815790 441.161183
-186.498822 -2673.845557 440.852350
-188.474610 -2673.875324 440.543517
-190.450397 -2673.905091 440.234684
-192.426184 -2673.934858 439.925851
-194.401972 -2673.964625 439.617018
-196.377759 -2673.994392 439.308185
-198.353547 -2674.024159 438.999351
-200.329334 -2674.053926 438.690518
-202.305122 -2674.083693 438.381685
-204.280909 -2674.113460 438.072852
-206.256697 -2674.143227 437.764019
-208.232484 -2674.172994 437.455186
-210.208272 -2674.202761 437.146353
-212.184059 -2674.232528 436.837520
-214.159846 -2674.262295 436.528687
-216.135634 -2674.292062 436.219854
-218.111421 -2674.321829 435.911021
-220.087209 -2674.351596 435.602188
-222.062996 -2674.381363 435.293355
-224.038784 -2674.411130 434.984522
-226.014571 -2674.440897 434.675689
-227.990359 -2674.470665 434.366855
-229.966146 -2674.500432 434.058022
-231.941934 -2674.530199 433.749189
-233.917721 -2674.559966 433.440356
-235.893508 -2674.589733 433.131523
-237.869296 -2674.619500 432.822690
-239.845083 -2674.649267 432.513857
-241.820871 -2674.679034 432.205024
-243.796658 -2674.708801 431.896191
-245.772446 -2674.738568 431.587358
-247.748233 -2674.768335 431.278525
-249.724021 -2674.798102 430.969692
-251.699808 -2674.827869 430.660859
-253.675595 -2674.857636 430.352026
-255.651383 -2674.887403 430.043192
-257.627170 -2674.917170 429.734359
-259.602958 -2674.946937 429.425526
-261.578745 -2674.976704 429.116693
-263.554533 -2675.006471 428.807860
-265.530320 -2675.036238 428.499027
-267.506108 -2675.066005 428.190194
-269.481895 -2675.095772 427.881361
-271.457683 -2675.125539 427.572528
-273.433470 -2675.155307 427.263695
-275.409257 -2675.185074 426.954862
-277.385045 -2675.214841 426.646029
-279.360832 -2675.244608 426.337196
-281.336620 -2675.274375 426.028363
-283.312407 -2675.304142 425.719530
-285.288195 -2675.333909 425.410696
-287.263982 -2675.363676 425.101863
-289.239770 -2675.393443 424.793030
-291.215557 -2675.423210 424.484197
-293.191345 -2675.452977 424.175364
-295.167132 -2675.482744 423.866531
-297.142919 -2675.512511 423.557698
-299.118707 -2675.542278 423.248865
-301.094494 -2675.572045 422.940032
-303.070282 -2675.601812 422.631199
-305.046069 -2675.631579 422.322366
-307.021857 -2675.661346 422.013533
-308.997644 -2675.691113 421.704700
-310.973432 -2675.720880 421.395867
-312.949219 -2675.750647 421.087034
-314.925007 -2675.780414 420.778200
-316.900794 -2675.810181 420.469367
-318.876581 -2675.839948 420.160534
-320.852369 -2675.869716 419.851701
-322.828156 -2675.899483 419.542868
-324.803944 -2675.929250 419.234035
-326.779731 -2675.959017 418.925202
-328.755519 -2675.988784 418.616369
-330.731306 -2676.018551 418.307536
-332.707094 -2676.048318 417.998703
-334.682881 -2676.078085 417.689870
-336.658669 -2676.107852 417.381037
-338.634456 -2676.137619 417.072204
-340.610243 -2676.167386 416.763371
-342.586031 -2676.197153 416.454538
-344.561818 -2676.226920 416.145704
-346.537606 -2676.256687 415.836871
-348.513393 -2676.286454 415.528038
-350.489181 -2676.316221 415.219205
-352.464968 -2676.345988 414.910372
-354.440756 -2676.375755 414.601539
-356.416543 -2676.405522 414.292706
-358.392331 -2676.435289 413.983873
-360.368118 -2676.465056 413.675040
-362.343905 -2676.494823 413.366207
-364.319693 -2676.524590 413.057374
-366.295480 -2676.554358 412.748541
-368.271268 -2676.584125 412.439708
-370.247055 -2676.613892 412.130875
-372.222843 -2676.643659 411.822042
-374.198630 -2676.673426 411.513208
-376.174418 -2676.703193 411.204375
-378.150205 -2676.732960 410.895542
-380.125992 -2676.762727 410.586709
-382.101780 -2676.792494 410.277876
-384.077567 -2676.822261 409.969043
-386.053355 -2676.852028 409.660210
-388.029142 -2676.881795 409.351377
-390.004930 -2676.911562 409.042544
-391.980717 -2676.941329 408.733711
-393.956505 -2676.971096 408.424878
-395.932292 -2677.000863 408.116045
-397.908080 -2677.030630 407.807212
-399.883867 -2677.060397 407.498379
-401.859654 -2677.090164 407.189546
-403.835442 -2677.119931 406.880712
-405.811229 -2677.149698 406.571879
-407.787017 -2677.179465 406.263046
-409.762804 -2677.209232 405.954213
-411.738592 -2677.238999 405.645380
-413.714379 -2677.268767 405.336547
-415.690167 -2677.298534 405.027714
-417.665954 -2677.328301 404.718881
-419.641742 -2677.358068 404.410048
-421.617529 -2677.387835 404.101215
-423.593316 -2677.417602 403.792382
-425.569104 -2677.447369 403.483549
-427.544891 -2677.477136 403.174716
-429.520679 -2677.506903 402.865883
-431.496466 -2677.536670 402.557050
-433.472254 -2677.566437 402.248216
-435.448041 -2677.596204 401.939383
-437.423829 -2677.625971 401.630550
-439.399616 -2677.655738 401.321717
-441.375404 -2677.685505 401.012884
-443.351191 -2677.715272 400.704051
-445.326978 -2677.745039 400.395218
-447.302766 -2677.774806 400.086385
-449.278553 -2677.804573 399.777552
-451.254341 -2677.834340 399.468719
-453.230128 -2677.864107 399.159886
-455.205916 -2677.893874 398.851053
-457.181703 -2677.923641 398.542220
-459.157491 -2677.953409 398.233387
-461.133278 -2677.983176 397.924554
-463.109066 -2678.012943 397.615720
-465.084853 -2678.042710 397.306887
-467.060640 -2678.072477 396.998054
-469.036428 -2678.102244 396.689221
-471.012215 -2678.132011 396.380388
-472.988003 -2678.161778 396.071555
-474.963790 -2678.191545 395.762722
-476.939578 -2678.221312 395.453889
-478.915365 -2678.251079 395.145056
-480.891153 -2678.280846 394.836223
-482.866940 -2678.310613 394.527390
-484.842728 -2678.340380 394.218557
-486.818515 -2678.370147 393.909724
-488.794302 -2678.399914 393.600891
-490.770090 -2678.429681 393.292058
-492.745877 -2678.459448 392.983224
-494.721665 -2678.489215 392.674391
-496.697452 -2678.518982 392.365558
-498.673240 -2678.548749 392.056725
-500.649027 -2678.578516 391.747892
-502.624815 -2678.608283 391.439059
-504.600602 -2678.638051 391.130226
-506.576389 -2678.667818 390.821393
-508.552177 -2678.697585 390.512560
-510.527964 -2678.727352 390.203727
-512.503752 -2678.757119 389.894894
-514.479539 -2678.786886 389.586061
-516.455327 -2678.816653 389.277228
-518.431114 -2678.846420 388.968395
-520.406902 -2678.876187 388.659562
-522.382689 -2678.905954 388.350728
-524.358477 -2678.935721 388.041895
-526.334264 -2678.965488 387.733062
-528.310051 -2678.995255 387.424229
-530.285839 -2679.025022 387.115396
-532.261626 -2679.054789 386.806563
-534.237414 -2679.084556 386.497730
-536.213201 -2679.114323 386.188897
-538.188989 -2679.144090 385.880064
-540.164776 -2679.173857 385.571231
-542.140564 -2679.203624 385.262398
-544.116351 -2679.233391 384.953565
-546.092139 -2679.263158 384.644732
-548.067926 -2679.292925 384.335899
-550.043713 -2679.322692 384.027066
-552.019501 -2679.352460 383.718232
-553.995288 -2679.382227 383.409399
-555.971076 -2679.411994 383.100566
-557.946863 -2679.441761 382.791733
-559.922651 -2679.471528 382.482900
-561.898438 -2679.501295 382.174067
-563.874226 -2679.531062 381.865234
-565.850013 -2679.560829 381.556401
-567.825801 -2679.590596 381.247568
-569.801588 -2679.620363 380.938735
-571.777375 -2679.650130 380.629902
-573.753163 -2679.679897 380.321069
-575.728950 -2679.709664 380.012236
-577.704738 -2679.739431 379.703403
-579.680525 -2679.769198 379.394569
-581.656313 -2679.798965 379.085736
-583.632100 -2679.828732 378.776903
-585.607888 -2679.858499 378.468070
-587.583675 -2679.888266 378.159237
-589.559463 -2679.918033 377.850404
-591.535250 -2679.947800 377.541571
-593.511037 -2679.977567 377.232738
-595.486825 -2680.007334 376.923905
-597.462612 -2680.037102 376.615072
-599.438400 -2680.066869 376.306239
-601.414187 -2680.096636 375.997406
-603.389975 -2680.126403 375.688573
-605.365762 -2680.156170 375.379740
-607.341550 -2680.185937 375.070907
-609.317337 -2680.215704 374.762073
-611.293125 -2680.245471 374.453240
-613.268912 -2680.275238 374.144407
-615.244699 -2680.305005 373.835574
-617.220487 -2680.334772 373.526741
-619.196274 -2680.364539 373.217908
-621.172062 -2680.394306 372.909075
-623.147849 -2680.424073 372.600242
-625.123637 -2680.453840 372.291409
-627.099424 -2680.483607 371.982576
-629.075212 -2680.513374 371.673743
-631.050999 -2680.543141 371.364910
-633.026786 -2680.572908 371.056077
-635.002574 -2680.602675 370.747244
-636.978361 -2680.632442 370.438411
-638.954149 -2680.662209 370.129577
-640.929936 -2680.691976 369.820744
-642.905724 -2680.721743 369.511911
-644.881511 -2680.751511 369.203078
-646.857299 -2680.781278 368.894245
-648.833086 -2680.811045 368.585412
-650.808874 -2680.840812 368.276579
-652.784661 -2680.870579 367.967746
-654.760448 -2680.900346 367.658913
-656.736236 -2680.930113 367.350080
-658.712023 -2680.959880 367.041247
-660.687811 -2680.989647 366.732414
-662.663598 -2681.019414 366.423581
-664.639386 -2681.049181 366.114748
-666.615173 -2681.078948 365.805915
-668.590961 -2681.108715 365.497081
-670.566748 -2681.138482 365.188248
-672.542536 -2681.168249 364.879415
-674.518323 -2681.198016 364.570582
-676.494110 -2681.227783 364.261749
-678.469898 -2681.257550 363.952916
-680.445685 -2681.287317 363.644083
-682.421473 -2681.317084 363.335250
-684.397260 -2681.346851 363.026417
-686.373048 -2681.376618 362.717584
-688.348835 -2681.406385 362.408751
-690.324623 -2681.436153 362.099918
-692.300410 -2681.465920 361.791085
-694.276198 -2681.495687 361.482252
-696.251985 -2681.525454 361.173419
-698.227772 -2681.555221 360.864585
-700.203560 -2681.584988 360.555752
-702.179347 -2681.614755 360.246919
-704.155135 -2681.644522 359.938086
-706.130922 -2681.674289 359.629253
-708.106710 -2681.704056 359.320420
-710.082497 -2681.733823 359.011587
-712.058285 -2681.763590 358.702754
-714.034072 -2681.793357 358.393921
-716.009860 -2681.823124 358.085088
-717.985647 -2681.852891 357.776255
-719.961434 -2681.882658 357.467422
-721.937222 -2681.912425 357.158589
-723.913009 -2681.942192 356.849756
-725.888797 -2681.971959 356.540923
-727.864584 -2682.001726 356.232089
-729.840372 -2682.031493 355.923256
-731.816159 -2682.061260 355.614423
-733.791947 -2682.091027 355.305590
-735.767734 -2682.120794 354.996757
-737.743522 -2682.150562 354.687924
-739.719309 -2682.180329 354.379091
-741.695096 -2682.210096 354.070258
-743.670884 -2682.239863 353.761425
-745.646671 -2682.269630 353.452592
-747.622459 -2682.299397 353.143759
-749.598246 -2682.329164 352.834926
-751.574034 -2682.358931 352.526093
-753.549821 -2682.388698 352.217260
-755.525609 -2682.418465 351.908427
-757.501396 -2682.448232 351.599593
-759.477183 -2682.477999 351.290760
-761.452971 -2682.507766 350.981927
-763.428758 -2682.537533 350.673094
-765.404546 -2682.567300 350.364261
-767.380333 -2682.597067 350.055428
-769.356121 -2682.626834 349.746595
-771.331908 -2682.656601 349.437762
-773.307696 -2682.686368 349.128929
-775.283483 -2682.716135 348.820096
-777.259271 -2682.745902 348.511263
-779.235058 -2682.775669 348.202430
-781.210845 -2682.805436 347.893597
-783.186633 -2682.835204 347.584764
-785.162420 -2682.864971 347.275931
-787.138208 -2682.894738 346.967097
-789.113995 -2682.924505 346.658264
-791.089783 -2682.954272 346.349431
-793.065570 -2682.984039 346.040598
-795.041358 -2683.013806 345.731765
-797.017145 -2683.043573 345.422932
-798.992933 -2683.073340 345.114099
-800.968720 -2683.103107 344.805266
-802.944507 -2683.132874 344.496433
-804.920295 -2683.162641 344.187600
-806.896082 -2683.192408 343.878767
-808.871870 -2683.222175 343.569934
-810.847657 -2683.251942 343.261101
-812.823445 -2683.281709 342.952268
-814.799232 -2683.311476 342.643435
-816.775020 -2683.341243 342.334601
-818.750807 -2683.371010 342.025768
-820.726595 -2683.400777 341.716935
-822.702382 -2683.430544 341.408102
-824.678169 -2683.460311 341.099269
-826.653957 -2683.490078 340.790436
-828.629744 -2683.519845 340.481603
-830.605532 -2683.549613 340.172770
-832.581319 -2683.579380 339.863937
-834.557107 -2683.609147 339.555104
-836.532894 -2683.638914 339.246271
-838.508682 -2683.668681 338.937438
-840.484469 -2683.698448 338.628605
-842.460257 -2683.728215 338.319772
-844.436044 -2683.757982 338.010939
-846.411831 -2683.787749 337.702105
-848.387619 -2683.817516 337.393272
-850.363406 -2683.847283 337.084439
-852.339194 -2683.877050 336.775606
-854.314981 -2683.906817 336.466773
-856.290769 -2683.936584 336.157940
-858.266556 -2683.966351 335.849107
-860.242344 -2683.996118 335.540274
-862.218131 -2684.025885 335.231441
-864.193919 -2684.055652 334.922608
-866.169706 -2684.085419 334.613775
-868.145493 -2684.115186 334.304942
-870.121281 -2684.144953 333.996109
-872.097068 -2684.174720 333.687276
-874.072856 -2684.204487 333.378443
-876.048643 -2684.234255 333.069609
-878.024431 -2684.264022 332.760776
-880.000218 -2684.293789 332.451943
-881.976006 -2684.323556 332.143110
-883.951793 -2684.353323 331.834277
-885.927580 -2684.383090 331.525444
-887.903368 -2684.412857 331.216611
-889.879155 -2684.442624 330.907778
-891.854943 -2684.472391 330.598945
-893.830730 -2684.502158 330.290112
-895.806518 -2684.531925 329.981279
-897.782305 -2684.561692 329.672446
-899.758093 -2684.591459 329.363613
-901.733880 -2684.621226 329.054780
-903.709668 -2684.650993 328.745947
-905.685455 -2684.680760 328.437113
-907.661242 -2684.710527 328.128280
-909.637030 -2684.740294 327.819447
-911.612817 -2684.770061 327.510614
-913.588605 -2684.799828 327.201781
-915.564392 -2684.829595 326.892948
-917.540180 -2684.859362 326.584115
-919.515967 -2684.889129 326.275282
-921.491755 -2684.918896 325.966449
-923.467542 -2684.948664 325.657616
-925.443330 -2684.978431 325.348783
-927.419117 -2685.008198 325.039950
-929.394904 -2685.037965 324.731117
-931.370692 -2685.067732 324.422284
-933.346479 -2685.097499 324.113450
-935.322267 -2685.127266 323.804617
-937.298054 -2685.157033 323.495784
-939.273842 -2685.186800 323.186951
-941.249629 -2685.216567 322.878118
-943.225417 -2685.246334 322.569285
-945.201204 -2685.276101 322.260452
-947.176992 -2685.305868 321.951619
-949.152779 -2685.335635 321.642786
-951.128566 -2685.365402 321.333953
-953.104354 -2685.395169 321.025120
-955.080141 -2685.424936 320.716287
-957.055929 -2685.454703 320.407454
-959.031716 -2685.484470 320.098621
-961.007504 -2685.514237 319.789788
-962.983291 -2685.544004 319.480954
-964.959079 -2685.573771 319.172121
-966.934866 -2685.603538 318.863288
-968.910654 -2685.633306 318.554455
-970.886441 -2685.663073 318.245622
-972.862228 -2685.692840 317.936789
-974.838016 -2685.722607 317.627956
-976.813803 -2685.752374 317.319123
-978.789591 -2685.782141 317.010290
-980.765378 -2685.811908 316.701457
-982.741166 -2685.841675 316.392624
-984.716953 -2685.871442 316.083791
-986.692741 -2685.901209 315.774958
-988.668528 -2685.930976 315.466125
-990.644316 -2685.960743 315.157292
-992.620103 -2685.990510 314.848458
-994.595890 -2686.020277 314.539625
-996.571678 -2686.050044 314.230792
-998.547465 -2686.079811 313.921959
-1000.523253 -2686.109578 313.613126
-1002.499040 -2686.139345 313.304293
-1004.474828 -2686.169112 312.995460
-1006.450615 -2686.198879 312.686627
-1008.426403 -2686.228646 312.377794
-1010.402190 -2686.258413 312.068961
-1012.377977 -2686.288180 311.760128
-1014.353765 -2686.317947 311.451295
-1016.329552 -2686.347715 311.142462
-1018.305340 -2686.377482 310.833629
-1020.281127 -2686.407249 310.524796
-1022.256915 -2686.437016 310.215962
-1024.232702 -2686.466783 309.907129
-1026.208490 -2686.496550 309.598296
-1028.184277 -2686.526317 309.289463
-1030.160065 -2686.556084 308.980630
-1032.135852 -2686.585851 308.671797
-1034.111639 -2686.615618 308.362964
-1036.087427 -2686.645385 308.054131
-1038.063214 -2686.675152 307.745298
-1040.039002 -2686.704919 307.436465
-1042.014789 -2686.734686 307.127632
-1043.990577 -2686.764453 306.818799
-1045.966364 -2686.794220 306.509966
-1047.942152 -2686.823987 306.201133
-1049.917939 -2686.853754 305.892300
-1051.893727 -2686.883521 305.583466
-1053.869514 -2686.913288 305.274633
-1055.845301 -2686.943055 304.965800
-1057.821089 -2686.972822 304.656967
-1059.796876 -2687.002589 304.348134
-1061.772664 -2687.032357 304.039301
-1063.748451 -2687.062124 303.730468
-1065.724239 -2687.091891 303.421635
-1067.700026 -2687.121658 303.112802
-1069.675814 -2687.151425 302.803969
-1071.651601 -2687.181192 302.495136
-1073.627389 -2687.210959 302.186303
-1075.603176 -2687.240726 301.877470
-1077.578963 -2687.270493 301.568637
-1079.554751 -2687.300260 301.259804
-1081.530538 -2687.330027 300.950970
-1083.506326 -2687.359794 300.642137
-1085.482113 -2687.389561 300.333304
-1087.457901 -2687.419328 300.024471
-1089.433688 -2687.449095 299.715638
-1091.409476 -2687.478862 299.406805
-1093.385263 -2687.508629 299.097972
-1095.361051 -2687.538396 298.789139
-1097.336838 -2687.568163 298.480306
-1099.312625 -2687.597930 298.171473
-1101.288413 -2687.627697 297.862640
-1103.264200 -2687.657464 297.553807
-1105.239988 -2687.687231 297.244974
-1107.215775 -2687.716998 296.936141
-1109.191563 -2687.746766 296.627308
-1111.167350 -2687.776533 296.318474
-1113.143138 -2687.806300 296.009641
-1115.118925 -2687.836067 295.700808
-1117.094713 -2687.865834 295.391975
-1119.070500 -2687.895601 295.083142
-1121.046287 -2687.925368 294.774309
-1123.022075 -2687.955135 294.465476
-1124.997862 -2687.984902 294.156643
-1126.973650 -2688.014669 293.847810
-1128.949437 -2688.044436 293.538977
-1130.925225 -2688.074203 293.230144
-1132.901012 -2688.103970 292.921311
-1134.876800 -2688.133737 292.612478
-1136.852587 -2688.163504 292.303645
-1138.828374 -2688.193271 291.994812
-1140.804162 -2688.223038 291.685978
-1142.779949 -2688.252805 291.377145
-1144.755737 -2688.282572 291.068312
-1146.731524 -2688.312339 290.759479
-1148.707312 -2688.342106 290.450646
-1150.683099 -2688.371873 290.141813
-1152.658887 -2688.401640 289.832980
-1154.634674 -2688.431408 289.524147
-1156.610462 -2688.461175 289.215314
-1158.586249 -2688.490942 288.906481
-1160.562036 -2688.520709 288.597648
-1162.537824 -2688.550476 288.288815
-1164.513611 -2688.580243 287.979982
-1166.489399 -2688.610010 287.671149
-1168.465186 -2688.639777 287.362316
-1170.440974 -2688.669544 287.053482
-1172.416761 -2688.699311 286.744649
-1174.392549 -2688.729078 286.435816
-1176.368336 -2688.758845 286.126983
-1178.344124 -2688.788612 285.818150
-1180.319911 -2688.818379 285.509317
-1182.295698 -2688.848146 285.200484
-1184.271486 -2688.877913 284.891651
-1186.247273 -2688.907680 284.582818
-1188.223061 -2688.937447 284.273985
-1190.198848 -2688.967214 283.965152
-1192.174636 -2688.996981 283.656319
-1194.150423 -2689.026748 283.347486
-1196.126211 -2689.056515 283.038653
-1198.101998 -2689.086282 282.729820
-1200.077786 -2689.116049 282.420986
-1202.053573 -2689.145817 282.112153
-1204.029360 -2689.175584 281.803320
-1206.005148 -2689.205351 281.494487
-1207.980935 -2689.235118 281.185654
-1209.956723 -2689.264885 280.876821
-1211.932510 -2689.294652 280.567988
-1213.908298 -2689.324419 280.259155
-1215.884085 -2689.354186 279.950322
-1217.859873 -2689.383953 279.641489
-1219.835660 -2689.413720 279.332656
-1221.811448 -2689.443487 279.023823
-1223.787235 -2689.473254 278.714990
-1225.763022 -2689.503021 278.406157
-1227.738810 -2689.532788 278.097324
-1229.714597 -2689.562555 277.788490
-1231.690385 -2689.592322 277.479657
-1233.666172 -2689.622089 277.170824
-1235.641960 -2689.651856 276.861991
-1237.617747 -2689.681623 276.553158
-1239.593535 -2689.711390 276.244325
-1241.569322 -2689.741157 275.935492
-1243.545110 -2689.770924 275.626659
-1245.520897 -2689.800691 275.317826
-1247.496684 -2689.830459 275.008993
-1249.472472 -2689.860226 274.700160
-1251.448259 -2689.889993 274.391327
-1253.424047 -2689.919760 274.082494
-1255.399834 -2689.949527 273.773661
-1257.375622 -2689.979294 273.464827
-1259.351409 -2690.009061 273.155994
-1261.327197 -2690.038828 272.847161
-1263.302984 -2690.068595 272.538328
-1265.278771 -2690.098362 272.229495
-1267.254559 -2690.128129 271.920662
-1269.230346 -2690.157896 271.611829
-1271.206134 -2690.187663 271.302996
-1273.181921 -2690.217430 270.994163
-1275.157709 -2690.247197 270.685330
-1277.133496 -2690.276964 270.376497
-1279.109284 -2690.306731 270.067664
-1281.085071 -2690.336498 269.758831
-1283.060859 -2690.366265 269.449998
-1285.036646 -2690.396032 269.141165
-1287.012433 -2690.425799 268.832331
-1288.988221 -2690.455566 268.523498
-1290.964008 -2690.485333 268.214665
-1292.939796 -2690.515101 267.905832
-1294.915583 -2690.544868 267.596999
-1296.891371 -2690.574635 267.288166
-1298.867158 -2690.604402 266.979333
-1300.842946 -2690.634169 266.670500
-1302.818733 -2690.663936 266.361667
-1304.794521 -2690.693703 266.052834
-1306.770308 -2690.723470 265.744001
-1308.746095 -2690.753237 265.435168
-1310.721883 -2690.783004 265.126335
-1312.697670 -2690.812771 264.817502
-1314.673458 -2690.842538 264.508669
-1316.649245 -2690.872305 264.199835
-1318.625033 -2690.902072 263.891002
-1320.600820 -2690.931839 263.582169
-1322.576608 -2690.961606 263.273336
-1324.552395 -2690.991373 262.964503
-1326.528183 -2691.021140 262.655670
-1328.503970 -2691.050907 262.346837
-1330.479757 -2691.080674 262.038004
-1332.455545 -2691.110441 261.729171
-1334.431332 -2691.140208 261.420338
-1336.407120 -2691.169975 261.111505
-1338.382907 -2691.199742 260.802672
-1340.358695 -2691.229510 260.493839
-1342.334482 -2691.259277 260.185006
-1344.310270 -2691.289044 259.876173
-1346.286057 -2691.318811 259.567339
-1348.261845 -2691.348578 259.258506
-1350.237632 -2691.378345 258.949673
-1352.213419 -2691.408112 258.640840
-1354.189207 -2691.437879 258.332007
-1356.164994 -2691.467646 258.023174
-1358.140782 -2691.497413 257.714341
-1360.116569 -2691.527180 257.405508
-1362.092357 -2691.556947 257.096675
-1364.068144 -2691.586714 256.787842
-1366.043932 -2691.616481 256.479009
-1368.019719 -2691.646248 256.170176
-1369.995507 -2691.676015 255.861343
-1371.971294 -2691.705782 255.552510
-1373.947081 -2691.735549 255.243677
-1375.922869 -2691.765316 254.934843
-1377.898656 -2691.795083 254.626010
-1379.874444 -2691.824850 254.317177
-1381.850231 -2691.854617 254.008344
-1383.826019 -2691.884384 253.699511
-1385.801806 -2691.914152 253.390678
-1387.777594 -2691.943919 253.081845
-1389.753381 -2691.973686 252.773012
-1391.729168 -2692.003453 252.464179
-1393.704956 -2692.033220 252.155346
-1395.680743 -2692.062987 251.846513
-1397.656531 -2692.092754 251.537680
-1399.632318 -2692.122521 251.228847
-1401.608106 -2692.152288 250.920014
-1403.583893 -2692.182055 250.611181
-1405.559681 -2692.211822 250.302347
-1407.535468 -2692.241589 249.993514
-1409.511256 -2692.271356 249.684681
-1411.487043 -2692.301123 249.375848
-1413.462830 -2692.330890 249.067015
-1415.438618 -2692.360657 248.758182
-1417.414405 -2692.390424 248.449349
-1419.390193 -2692.420191 248.140516
-1421.365980 -2692.449958 247.831683
-1423.341768 -2692.479725 247.522850
-1425.317555 -2692.509492 247.214017
-1427.293343 -2692.539259 246.905184
-1429.269130 -2692.569026 246.596351
-1431.244918 -2692.598793 246.287518
-1433.220705 -2692.628561 245.978685
-1435.196492 -2692.658328 245.669851
-1437.172280 -2692.688095 245.361018
-1439.148067 -2692.717862 245.052185
-1441.123855 -2692.747629 244.743352
-1443.099642 -2692.777396 244.434519
-1445.075430 -2692.807163 244.125686
-1447.051217 -2692.836930 243.816853
-1449.027005 -2692.866697 243.508020
-1451.002792 -2692.896464 243.199187
-1452.978580 -2692.926231 242.890354
-1454.954367 -2692.955998 242.581521
-1456.930154 -2692.985765 242.272688
-1458.905942 -2693.015532 241.963855
-1460.881729 -2693.045299 241.655022
-1462.857517 -2693.075066 241.346189
-1464.833304 -2693.104833 241.037355
-1466.809092 -2693.134600 240.728522
-1468.784879 -2693.164367 240.419689
-1470.760667 -2693.194134 240.110856
-1472.736454 -2693.223901 239.802023
-1474.712242 -2693.253668 239.493190
-1476.688029 -2693.283435 239.184357
-1478.663816 -2693.313203 238.875524
-1480.639604 -2693.342970 238.566691
-1482.615391 -2693.372737 238.257858
-1484.591179 -2693.402504 237.949025
-1486.566966 -2693.432271 237.640192
-1488.542754 -2693.462038 237.331359
-1490.518541 -2693.491805 237.022526
-1492.494329 -2693.521572 236.713693
-1494.470116 -2693.551339 236.404859
-1496.445904 -2693.581106 236.096026
-1498.421691 -2693.610873 235.787193
-1500.397478 -2693.640640 235.478360
-1502.373266 -2693.670407 235.169527
-1504.349053 -2693.700174 234.860694
-1506.324841 -2693.729941 234.551861
-1508.300628 -2693.759708 234.243028
-1510.276416 -2693.789475 233.934195
-1512.252203 -2693.819242 233.625362
-1514.227991 -2693.849009 233.316529
-1516.203778 -2693.878776 233.007696
-1518.179565 -2693.908543 232.698863
-1520.155353 -2693.938310 232.390030
-1522.131140 -2693.968077 232.081197
-1524.106928 -2693.997844 231.772363
-1526.082715 -2694.027612 231.463530
-1528.058503 -2694.057379 231.154697
-1530.034290 -2694.087146 230.845864
-1532.010078 -2694.116913 230.537031
-1533.985865 -2694.146680 230.228198
-1535.961653 -2694.176447 229.919365
-1537.937440 -2694.206214 229.610532
-1539.913227 -2694.235981 229.301699
-1541.889015 -2694.265748 228.992866
-1543.864802 -2694.295515 228.684033
-1545.840590 -2694.325282 228.375200
-1547.816377 -2694.355049 228.066367
-1549.792165 -2694.384816 227.757534
-1551.767952 -2694.414583 227.448701
-1553.743740 -2694.444350 227.139867
-1555.719527 -2694.474117 226.831034
-1557.695315 -2694.503884 226.522201
-1559.671102 -2694.533651 226.213368
-1561.646889 -2694.563418 225.904535
-1563.622677 -2694.593185 225.595702
-1565.598464 -2694.622952 225.286869
-1567.574252 -2694.652719 224.978036
-1569.550039 -2694.682486 224.669203
-1571.525827 -2694.712254 224.360370
-1573.501614 -2694.742021 224.051537
-1575.477402 -2694.771788 223.742704
-1577.453189 -2694.801555 223.433871
-1579.428977 -2694.831322 223.125038
-1581.404764 -2694.861089 222.816204
-1583.380551 -2694.890856 222.507371
-1585.356339 -2694.920623 222.198538
-1587.332126 -2694.950390 221.889705
-1589.307914 -2694.980157 221.580872
-1591.283701 -2695.009924 221.272039
-1593.259489 -2695.039691 220.963206
-1595.235276 -2695.069458 220.654373
-1597.211064 -2695.099225 220.345540
-1599.186851 -2695.128992 220.036707
-1601.162639 -2695.158759 219.727874
-1603.138426 -2695.188526 219.419041
-1605.114213 -2695.218293 219.110208
-1607.090001 -2695.248060 218.801375
-1609.065788 -2695.277827 218.492542
-1611.041576 -2695.307594 218.183708
-1613.017363 -2695.337361 217.874875
-1614.993151 -2695.367128 217.566042
-1616.968938 -2695.396895 217.257209
-1618.944726 -2695.426663 216.948376
-1620.920513 -2695.456430 216.639543
-1622.896301 -2695.486197 216.330710
-1624.872088 -2695.515964 216.021877
-1626.847875 -2695.545731 215.713044
-1628.823663 -2695.575498 215.404211
-1630.799450 -2695.605265 215.095378
-1632.775238 -2695.635032 214.786545
-1634.751025 -2695.664799 214.477712
-1636.726813 -2695.694566 214.168879
-1638.702600 -2695.724333 213.860046
-1640.678388 -2695.754100 213.551212
-1642.654175 -2695.783867 213.242379
-1644.629962 -2695.813634 212.933546
-1646.605750 -2695.843401 212.624713
-1648.581537 -2695.873168 212.315880
-1650.557325 -2695.902935 212.007047
-1652.533112 -2695.932702 211.698214
-1654.508900 -2695.962469 211.389381
-1656.484687 -2695.992236 211.080548
-1658.460475 -2696.022003 210.771715
-1660.436262 -2696.051770 210.462882
-1662.412050 -2696.081537 210.154049
-1664.387837 -2696.111305 209.845216
-1666.363624 -2696.141072 209.536383
-1668.339412 -2696.170839 209.227550
-1670.315199 -2696.200606 208.918716
-1672.290987 -2696.230373 208.609883
-1674.266774 -2696.260140 208.301050
-1676.242562 -2696.289907 207.992217
-1678.218349 -2696.319674 207.683384
-1680.194137 -2696.349441 207.374551
-1682.169924 -2696.379208 207.065718
-1684.145712 -2696.408975 206.756885
-1686.121499 -2696.438742 206.448052
-1688.097286 -2696.468509 206.139219
-1690.073074 -2696.498276 205.830386
-1692.048861 -2696.528043 205.521553
-1694.024649 -2696.557810 205.212720
-1696.000436 -2696.587577 204.903887
-1697.976224 -2696.617344 204.595054
-1699.952011 -2696.647111 204.286220
-1701.927799 -2696.676878 203.977387
-1703.903586 -2696.706645 203.668554
-1705.879374 -2696.736412 203.359721
-1707.855161 -2696.766179 203.050888
-1709.830948 -2696.795946 202.742055
-1711.806736 -2696.825714 202.433222
-1713.782523 -2696.855481 202.124389
-1715.758311 -2696.885248 201.815556
-1717.734098 -2696.915015 201.506723
-1719.709886 -2696.944782 201.197890
-1721.685673 -2696.974549 200.889057
-1723.661461 -2697.004316 200.580224
-1725.637248 -2697.034083 200.271391
-1727.613036 -2697.063850 199.962558
-1729.588823 -2697.093617 199.653724
-1731.564610 -2697.123384 199.344891
-1733.540398 -2697.153151 199.036058
-1735.516185 -2697.182918 198.727225
-1737.491973 -2697.212685 198.418392
-1739.467760 -2697.242452 198.109559
-1741.443548 -2697.272219 197.800726
-1743.419335 -2697.301986 197.491893
-1745.395123 -2697.331753 197.183060
-1747.370910 -2697.361520 196.874227
-1749.346698 -2697.391287 196.565394
-1751.322485 -2697.421054 196.256561
-1753.298272 -2697.450821 195.947728
-1755.274060 -2697.480588 195.638895
-1757.249847 -2697.510356 195.330062
-1759.225635 -2697.540123 195.021228
-1761.201422 -2697.569890 194.712395
-1763.177210 -2697.599657 194.403562
-1765.152997 -2697.629424 194.094729
-1767.128785 -2697.659191 193.785896
-1769.104572 -2697.688958 193.477063
-1771.080359 -2697.718725 193.168230
-1773.056147 -2697.748492 192.859397
-1775.031934 -2697.778259 192.550564
-1777.007722 -2697.808026 192.241731
-1778.983509 -2697.837793 191.932898
-1780.959297 -2697.867560 191.624065
-1782.935084 -2697.897327 191.315232
-1784.910872 -2697.927094 191.006399
-1786.886659 -2697.956861 190.697566
-1788.862447 -2697.986628 190.388732
-1790.838234 -2698.016395 190.079899
-1792.814021 -2698.046162 189.771066
-1794.789809 -2698.075929 189.462233
-1796.765596 -2698.105696 189.153400
-1798.741384 -2698.135463 188.844567
-1800.717171 -2698.165230 188.535734
-1802.692959 -2698.194997 188.226901
-1804.668746 -2698.224765 187.918068
-1806.644534 -2698.254532 187.609235
-1808.620321 -2698.284299 187.300402
-1810.596109 -2698.314066 186.991569
-1812.571896 -2698.343833 186.682736
-1814.547683 -2698.373600 186.373903
-1816.523471 -2698.403367 186.065070
-1818.499258 -2698.433134 185.756236
-1820.475046 -2698.462901 185.447403
-1822.450833 -2698.492668 185.138570
-1824.426621 -2698.522435 184.829737
-1826.402408 -2698.552202 184.520904
-1828.378196 -2698.581969 184.212071
-1830.353983 -2698.611736 183.903238
-1832.329771 -2698.641503 183.594405
-1834.305558 -2698.671270 183.285572
-1836.281345 -2698.701037 182.976739
-1838.257133 -2698.730804 182.667906
-1840.232920 -2698.760571 182.359073
-1842.208708 -2698.790338 182.050240
-1844.184495 -2698.820105 181.741407
-1846.160283 -2698.849872 181.432574
-1848.136070 -2698.879639 181.123740
-1850.111858 -2698.909407 180.814907
-1852.087645 -2698.939174 180.506074
-1854.063433 -2698.968941 180.197241
-1856.039220 -2698.998708 179.888408
-1858.015007 -2699.028475 179.579575
-1859.990795 -2699.058242 179.270742
-1861.966582 -2699.088009 178.961909
-1863.942370 -2699.117776 178.653076
-1865.918157 -2699.147543 178.344243
-1867.893945 -2699.177310 178.035410
-1869.869732 -2699.207077 177.726577
-1871.845520 -2699.236844 177.417744
-1873.821307 -2699.266611 177.108911
-1875.797095 -2699.296378 176.800078
-1877.772882 -2699.326145 176.491244
-1879.748669 -2699.355912 176.182411
-1881.724457 -2699.385679 175.873578
-1883.700244 -2699.415446 175.564745
-1885.676032 -2699.445213 175.255912
-1887.651819 -2699.474980 174.947079
-1889.627607 -2699.504747 174.638246
-1891.603394 -2699.534514 174.329413
-1893.579182 -2699.564281 174.020580
-1895.554969 -2699.594048 173.711747
-1897.530756 -2699.623816 173.402914
-1899.506544 -2699.653583 173.094081
-1901.482331 -2699.683350 172.785248
-1903.458119 -2699.713117 172.476415
-1905.433906 -2699.742884 172.167582
-1907.409694 -2699.772651 171.858748
-1909.385481 -2699.802418 171.549915
-1911.361269 -2699.832185 171.241082
-1913.337056 -2699.861952 170.932249
-1915.312844 -2699.891719 170.623416
-1917.288631 -2699.921486 170.314583
-1919.264418 -2699.951253 170.005750
-1921.240206 -2699.981020 169.696917
-1923.215993 -2700.010787 169.388084
-1925.191781 -2700.040554 169.079251
-1927.167568 -2700.070321 168.770418
-1929.143356 -2700.100088 168.461585
-1931.119143 -2700.129855 168.152752
-1933.094931 -2700.159622 167.843919
-1935.070718 -2700.189389 167.535085
-1937.046506 -2700.219156 167.226252
-1939.022293 -2700.248923 166.917419
-1940.998080 -2700.278690 166.608586
-1942.973868 -2700.308458 166.299753
-1944.949655 -2700.338225 165.990920
-1946.925443 -2700.367992 165.682087
-1948.901230 -2700.397759 165.373254
-1950.877018 -2700.427526 165.064421
-1952.852805 -2700.457293 164.755588
-1954.828593 -2700.487060 164.446755
-1956.804380 -2700.516827 164.137922
-1958.780168 -2700.546594 163.829089
-1960.755955 -2700.576361 163.520256
-1962.731742 -2700.606128 163.211423
-1964.707530 -2700.635895 162.902589
-1966.683317 -2700.665662 162.593756
-1968.659105 -2700.695429 162.284923
-1970.634892 -2700.725196 161.976090
-1972.610680 -2700.754963 161.667257
-1974.586467 -2700.784730 161.358424
-1976.562255 -2700.814497 161.049591
-1978.538042 -2700.844264 160.740758
-1980.513830 -2700.874031 160.431925
-1982.489617 -2700.903798 160.123092
-1984.465404 -2700.933565 159.814259
-1986.441192 -2700.963332 159.505426
-1988.416979 -2700.993100 159.196593
-1990.392767 -2701.022867 158.887760
-1992.368554 -2701.052634 158.578927
-1994.344342 -2701.082401 158.270093
-1996.320129 -2701.112168 157.961260
-1998.295917 -2701.141935 157.652427
-2000.271704 -2701.171702 157.343594
-2002.247492 -2701.201469 157.034761
-2004.223279 -2701.231236 156.725928
-2006.199066 -2701.261003 156.417095
-2008.174854 -2701.290770 156.108262
-2010.150641 -2701.320537 155.799429
-2012.126429 -2701.350304 155.490596
-2014.102216 -2701.380071 155.181763
-2016.078004 -2701.409838 154.872930
-2018.053791 -2701.439605 154.564097
-2020.029579 -2701.469372 154.255264
-2022.005366 -2701.499139 153.946431
-2023.981153 -2701.528906 153.637597
-2025.956941 -2701.558673 153.328764
-2027.932728 -2701.588440 153.019931
-2029.908516 -2701.618207 152.711098
-2031.884303 -2701.647974 152.402265
-2033.860091 -2701.677741 152.093432
-2035.835878 -2701.707509 151.784599
-2037.811666 -2701.737276 151.475766
-2039.787453 -2701.767043 151.166933
-2041.763241 -2701.796810 150.858100
-2043.739028 -2701.826577 150.549267
-2045.714815 -2701.856344 150.240434
-2047.690603 -2701.886111 149.931601
-2049.666390 -2701.915878 149.622768
-2051.642178 -2701.945645 149.313935
-2053.617965 -2701.975412 149.005101
-2055.593753 -2702.005179 148.696268
-2057.569540 -2702.034946 148.387435
-2059.545328 -2702.064713 148.078602
-2061.521115 -2702.094480 147.769769
-2063.496903 -2702.124247 147.460936
-2065.472690 -2702.154014 147.152103
-2067.448477 -2702.183781 146.843270
-2069.424265 -2702.213548 146.534437
-2071.400052 -2702.243315 146.225604
-2073.375840 -2702.273082 145.916771
-2075.351627 -2702.302849 145.607938
-2077.327415 -2702.332616 145.299105
-2079.303202 -2702.362383 144.990272
-2081.278990 -2702.392151 144.681439
-2083.254777 -2702.421918 144.372605
-2085.230565 -2702.451685 144.063772
-2087.206352 -2702.481452 143.754939
-2089.182139 -2702.511219 143.446106
-2091.157927 -2702.540986 143.137273
-2093.133714 -2702.570753 142.828440
-2095.109502 -2702.600520 142.519607
-2097.085289 -2702.630287 142.210774
-2099.061077 -2702.660054 141.901941
-2101.036864 -2702.689821 141.593108
-2103.012652 -2702.719588 141.284275
-2104.988439 -2702.749355 140.975442
-2106.964227 -2702.779122 140.666609
-2108.940014 -2702.808889 140.357776
-2110.915801 -2702.838656 140.048943
-2112.891589 -2702.868423 139.740109
-2114.867376 -2702.898190 139.431276
-2116.843164 -2702.927957 139.122443
-2118.818951 -2702.957724 138.813610
-2120.794739 -2702.987491 138.504777
-2122.770526 -2703.017258 138.195944
-2124.746314 -2703.047025 137.887111
-2126.722101 -2703.076792 137.578278
-2128.697888 -2703.106560 137.269445
-2130.673676 -2703.136327 136.960612
-2132.649463 -2703.166094 136.651779
-2134.625251 -2703.195861 136.342946
-2136.601038 -2703.225628 136.034113
-2138.576826 -2703.255395 135.725280
-2140.552613 -2703.285162 135.416447
-2142.528401 -2703.314929 135.107613
-2144.504188 -2703.344696 134.798780
-2146.479976 -2703.374463 134.489947
-2148.455763 -2703.404230 134.181114
-2150.431550 -2703.433997 133.872281
-2152.407338 -2703.463764 133.563448
-2154.383125 -2703.493531 133.254615
-2156.358913 -2703.523298 132.945782
-2158.334700 -2703.553065 132.636949
-2160.310488 -2703.582832 132.328116
-2162.286275 -2703.612599 132.019283
-2164.262063 -2703.642366 131.710450
-2166.237850 -2703.672133 131.401617
-2168.213638 -2703.701900 131.092784
-2170.189425 -2703.731667 130.783951
-2172.165212 -2703.761434 130.475117
-2174.141000 -2703.791202 130.166284
-2176.116787 -2703.820969 129.857451
-2178.092575 -2703.850736 129.548618
-2180.068362 -2703.880503 129.239785
-2182.044150 -2703.910270 128.930952
-2184.019937 -2703.940037 128.622119
-2185.995725 -2703.969804 128.313286
-2188.000000 -2704.000000 128.000000
-2186.025717 -2704.019942 127.680924
-2184.051434 -2704.039885 127.361848
-2182.077151 -2704.059827 127.042772
-2180.102869 -2704.079769 126.723696
-2178.128586 -2704.099711 126.404620
-2176.154303 -2704.119654 126.085544
-2174.180020 -2704.139596 125.766468
-2172.205737 -2704.159538 125.447392
-2170.231454 -2704.179480 125.128316
-2168.257171 -2704.199423 124.809240
-2166.282889 -2704.219365 124.490164
-2164.308606 -2704.239307 124.171088
-2162.334323 -2704.259249 123.852012
-2160.360040 -2704.279192 123.532936
-2158.385757 -2704.299134 123.213860
-2156.411474 -2704.319076 122.894784
-2154.437191 -2704.339018 122.575708
-2152.462909 -2704.358961 122.256632
-2150.488626 -2704.378903 121.937556
-2148.514343 -2704.398845 121.618480
-2146.540060 -2704.418787 121.299404
-2144.565777 -2704.438730 120.980328
-2142.591494 -2704.458672 120.661252
-2140.617211 -2704.478614 120.342176
-2138.642929 -2704.498556 120.023100
-2136.668646 -2704.518499 119.704024
-2134.694363 -2704.538441 119.384948
-2132.720080 -2704.558383 119.065872
-2130.745797 -2704.578325 118.746795
-2128.771514 -2704.598268 118.427719
-2126.797231 -2704.618210 118.108643
-2124.822949 -2704.638152 117.789567
-2122.848666 -2704.658094 117.470491
-2120.874383 -2704.678037 117.151415
-2118.900100 -2704.697979 116.832339
-2116.925817 -2704.717921 116.513263
-2114.951534 -2704.737863 116.194187
-2112.977251 -2704.757806 115.875111
-2111.002969 -2704.777748 115.556035
-2109.028686 -2704.797690 115.236959
-2107.054403 -2704.817632 114.917883
-2105.080120 -2704.837575 114.598807
-2103.105837 -2704.857517 114.279731
-2101.131554 -2704.877459 113.960655
-2099.157271 -2704.897401 113.641579
-2097.182989 -2704.917344 113.322503
-2095.208706 -2704.937286 113.003427
-2093.234423 -2704.957228 112.684351
-2091.260140 -2704.977170 112.365275
-2089.285857 -2704.997113 112.046199
-2087.311574 -2705.017055 111.727123
-2085.337291 -2705.036997 111.408047
-2083.363009 -2705.056939 111.088971
-2081.388726 -2705.076882 110.769895
-2079.414443 -2705.096824 110.450819
-2077.440160 -2705.116766 110.131743
-2075.465877 -2705.136708 109.812667
-2073.491594 -2705.156651 109.493591
-2071.517311 -2705.176593 109.174515
-2069.543029 -2705.196535 108.855439
-2067.568746 -2705.216477 108.536363
-2065.594463 -2705.236420 108.217287
-2063.620180 -2705.256362 107.898211
-2061.645897 -2705.276304 107.579135
-2059.671614 -2705.296246 107.260059
-2057.697331 -2705.316189 106.940983
-2055.723049 -2705.336131 106.621907
-2053.748766 -2705.356073 106.302831
-2051.774483 -2705.376015 105.983755
-2049.800200 -2705.395958 105.664679
-2047.825917 -2705.415900 105.345603
-2045.851634 -2705.435842 105.026527
-2043.877351 -2705.455784 104.707451
-2041.903069 -2705.475727 104.388375
-2039.928786 -2705.495669 104.069299
-2037.954503 -2705.515611 103.750223
-2035.980220 -2705.535553 103.431147
-2034.005937 -2705.555496 103.112071
-2032.031654 -2705.575438 102.792995
-2030.057371 -2705.595380 102.473919
-2028.083089 -2705.615322 102.154843
-2026.108806 -2705.635265 101.835767
-2024.134523 -2705.655207 101.516691
-2022.160240 -2705.675149 101.197615
-2020.185957 -2705.695091 100.878539
-2018.211674 -2705.715034 100.559463
-2016.237391 -2705.734976 100.240386
-2014.263109 -2705.754918 99.921310
-2012.288826 -2705.774860 99.602234
-2010.314543 -2705.794803 99.283158
-2008.340260 -2705.814745 98.964082
-2006.365977 -2705.834687 98.645006
-2004.391694 -2705.854629 98.325930
-2002.417411 -2705.874572 98.006854
-2000.443129 -2705.894514 97.687778
-1998.468846 -2705.914456 97.368702
-1996.494563 -2705.934398 97.049626
-1994.520280 -2705.954341 96.730550
-1992.545997 -2705.974283 96.411474
-1990.571714 -2705.994225 96.092398
-1988.597431 -2706.014167 95.773322
-1986.623149 -2706.034110 95.454246
-1984.648866 -2706.054052 95.135170
-1982.674583 -2706.073994 94.816094
-1980.700300 -2706.093936 94.497018
-1978.726017 -2706.113879 94.177942
-1976.751734 -2706.133821 93.858866
-1974.777451 -2706.153763 93.539790
-1972.803169 -2706.173705 93.220714
-1970.828886 -2706.193648 92.901638
-1968.854603 -2706.213590 92.582562
-1966.880320 -2706.233532 92.263486
-1964.906037 -2706.253474 91.944410
-1962.931754 -2706.273417 91.625334
-1960.957471 -2706.293359 91.306258
-1958.983189 -2706.313301 90.987182
-1957.008906 -2706.333243 90.668106
-1955.034623 -2706.353186 90.349030
-1953.060340 -2706.373128 90.029954
-1951.086057 -2706.393070 89.710878
-1949.111774 -2706.413012 89.391802
-1947.137491 -2706.432955 89.072726
-1945.163209 -2706.452897 88.753650
-1943.188926 -2706.472839 88.434574
-1941.214643 -2706.492781 88.115498
-1939.240360 -2706.512724 87.796422
-1937.266077 -2706.532666 87.477346
-1935.291794 -2706.552608 87.158270
-1933.317511 -2706.572550 86.839194
-1931.343229 -2706.592493 86.520118
-1929.368946 -2706.612435 86.201042
-1927.394663 -2706.632377 85.881966
-1925.420380 -2706.652319 85.562890
-1923.446097 -2706.672262 85.243814
-1921.471814 -2706.692204 84.924738
-1919.497531 -2706.712146 84.605662
-1917.523249 -2706.732088 84.286586
-1915.548966 -2706.752031 83.967510
-1913.574683 -2706.771973 83.648434
-1911.600400 -2706.791915 83.329358
-1909.626117 -2706.811857 83.010282
-1907.651834 -2706.831800 82.691206
-1905.677551 -2706.851742 82.372130
-1903.703269 -2706.871684 82.053053
-1901.728986 -2706.891626 81.733977
-1899.754703 -2706.911569 81.414901
-1897.780420 -2706.931511 81.095825
-1895.806137 -2706.951453 80.776749
-1893.831854 -2706.971395 80.457673
-1891.857571 -2706.991338 80.138597
-1889.883289 -2707.011280 79.819521
-1887.909006 -2707.031222 79.500445
-1885.934723 -2707.051164 79.181369
-1883.960440 -2707.071107 78.862293
-1881.986157 -2707.091049 78.543217
-1880.011874 -2707.110991 78.224141
-1878.037591 -2707.130933 77.905065
-1876.063309 -2707.150876 77.585989
-1874.089026 -2707.170818 77.266913
-1872.114743 -2707.190760 76.947837
-1870.140460 -2707.210702 76.628761
-1868.166177 -2707.230645 76.309685
-1866.191894 -2707.250587 75.990609
-1864.217611 -2707.270529 75.671533
-1862.243328 -2707.290471 75.352457
-1860.269046 -2707.310414 75.033381
